    -2.25291     -5.47844       10.356
    -2.48254     -5.50066       10.417
    -2.72259     -5.51557       10.427
    -2.95223     -5.53778       10.498
    -3.20196     -5.55541       10.488
    -3.43234      -5.5676       10.549
    -3.67165     -5.59254        10.59
    -3.90186     -5.60571        10.61
    -4.14191     -5.62063       10.631
    -4.34032     -5.64139       11.003
    -4.54725      -5.6657       11.314
    -4.79779     -5.68449       11.204
    -5.02643     -5.70653       11.285
    -5.25682     -5.71872       11.376
    -5.45349     -5.74933       11.778
    -5.65091     -5.76993        12.15
    -5.84816     -5.79151       12.543
    -6.05763     -5.80712       12.764
    -6.27504      -5.8353       12.975
    -6.47229     -5.85688       13.317
    -6.68176     -5.87249       13.549
    -6.90108     -5.88984        13.76
    -7.11832     -5.91901       13.921
     -7.3487      -5.9312       14.012
    -7.55661     -5.95567       14.284
    -7.77558     -5.97499       14.425
    -7.99374     -5.99315       14.606
    -8.22355     -6.01438       14.747
    -8.46361     -6.02929       14.747
    -8.67117     -6.05573       14.969
    -8.85909     -6.07262       15.451
    -9.04493     -6.10133       15.844
     -9.2544     -6.11694       16.115
    -9.93404     -6.25912       20.266
    -9.72538     -6.24466       19.964
    -10.1102      -6.2851       20.698
    -10.3179     -6.31056        20.97
    -10.5371      -6.3289       21.131
     -10.783     -6.58143       20.956
    -10.7561     -6.34821       21.262
    -11.0133     -6.59362       21.016
    -10.9863     -6.36139       21.333
     -11.243     -6.61583       21.087
    -11.2159      -6.3836       21.383
     -11.473     -6.62999       21.098
    -11.4561     -6.39753       21.444
    -13.3776     -6.53426       21.297
    -13.1472     -6.52207       21.226
    -13.6062      -6.5563       21.348
    -13.8252     -6.57562       21.499
    -14.0566     -6.58798       21.569
    -14.2639     -6.61541       21.751
     -14.504     -6.63032       21.761
    -14.7232     -6.64866       21.952
    -14.9534     -6.66183       21.973
    -15.1927     -6.68677       21.963
    -15.4229     -6.69994       22.004
    -15.6322     -6.71654       22.215
     -15.861     -6.73759       22.346
    -16.0686     -6.76404       22.547
    -16.2779     -6.78063       22.759
    -16.4968     -6.79995        22.87
    -16.7158     -6.81927       23.011
    -16.9034     -6.83813       23.423
    -17.0794      -6.8651       23.845
    -17.8601       -6.952       25.173
    -17.6412     -6.93268       25.032
    -18.0483       -6.973       25.495
    -18.2673     -6.99232       25.636
    -18.4452     -7.00845       26.098
    -18.6214     -7.03444       26.561
    -18.7974     -7.06141       26.963
    -18.9542     -7.08195       27.576
    -19.1083     -7.11217       28.169
    -19.2967     -7.13219       28.511
    -19.4839     -7.15301       28.833
     -19.703     -7.17135       29.024
    -19.8913     -7.19235       29.346
    -20.0997     -7.20779       29.567
    -20.3087     -7.22635       29.708
    -20.5383     -7.24856       29.759
     -20.767      -7.2706        29.84
    -21.0078     -7.28667        29.82
    -21.2284     -7.29713       29.891
    -21.4667     -7.32189       29.932
     -21.676     -7.33848       30.123
    -21.8754     -7.35334       30.324
    -22.0418     -7.37759       30.827
    -22.2388     -7.40016       31.138
    -22.4367     -7.42388        31.37
    -22.6555     -7.44418       31.471
    -22.8648     -7.46078       31.692
    -23.0838      -7.4801       31.813
    -23.3028     -7.49942       31.954
     -23.534     -7.51276       31.995
    -23.7529     -7.53208       32.106
      -23.94     -7.55389       32.387
     -24.138     -7.57663       32.689
    -24.3472     -7.59421        32.83
    -24.5565     -7.61081       33.041
    -24.7851     -7.63285       33.102
    -25.0153     -7.64603       33.143
    -25.2351      -7.6665       33.244
    -25.4653     -7.67968       33.264
    -25.6841     -7.69998       33.385
    -25.9031      -7.7193       33.496
    -26.1219      -7.7396       33.617
    -26.3628     -7.75567       33.547
    -26.5912     -7.77869       33.618
    -26.8226     -7.79106       33.658
    -27.0211     -7.80574        33.87
    -27.2393     -7.83508       34.031
    -27.4598     -7.84554       34.112
    -27.6883     -7.86856       34.162
    -27.9073     -7.88788       34.273
    -28.1164     -7.90546       34.424
    -28.3669     -7.92425       34.364
    -28.6078     -7.94032       34.305
     -28.838      -7.9535       34.355
    -29.0471     -7.97108       34.496
    -29.2564     -7.98768       34.697
    -29.4752     -8.00798       34.808
    -29.7151     -8.02388       34.789
    -29.9558     -8.04093       34.709
    -30.1968     -8.05602       34.709
    -30.4155      -8.0773        34.76
    -30.6344     -8.09662       34.901
    -30.8753     -8.11269       34.851
    -31.1038     -8.13572       34.922
     -31.334     -8.14889       34.952
    -31.5845     -8.16768       34.862
    -31.8254     -8.18375       34.803
    -32.0556     -8.19693       34.873
    -32.2533     -8.22164       35.055
    -32.4932     -8.23753       35.045
    -32.7552      -8.2492       34.874
    -32.9862     -8.26353       34.885
    -33.2563     -8.28678       34.705
     -33.496     -8.30366       34.665
    -33.7272     -8.31701       34.655
    -33.9779     -8.33482       34.615
     -34.229     -8.34458       34.495
    -34.4585     -8.36777       34.556
    -34.6887     -8.38095       34.566
    -34.9181     -8.40415       34.597
     -35.158     -8.42004       34.557
    -35.3989     -8.43611       34.548
    -35.6705      -8.4505       34.317
     -35.942     -8.46587       34.097
    -36.1933     -8.47464       33.996
    -36.4436     -8.49442       33.866
    -36.6942     -8.51321       33.776
    -36.9561     -8.52487       33.616
    -37.2065     -8.54465       33.516
     -37.488     -8.56077       33.285
    -37.7708     -8.56902       32.984
    -38.0212     -8.58879       32.854
     -38.293      -8.6022       32.674
    -38.5865     -8.61334       32.303
    -38.8678     -8.63044       32.022
     -39.171      -8.6443       31.611
    -39.4744     -8.65718       31.219
    -39.7046     -8.67036        31.25
    -39.9333     -8.69239       31.311
    -40.1741     -8.70846       31.301
    -40.4138     -8.72535       31.241
    -40.6328     -8.74466       31.352
    -40.8642     -8.75703       31.433
    -41.1145     -8.77681       31.303
    -41.3862     -8.79119       31.102
    -41.6578     -8.80558       30.902
    -41.9664     -9.05393       30.375
    -41.9602     -8.81828        30.51
    -44.8663     -8.79557       20.207
    -44.5322     -8.78438       20.779
    -45.0289     -9.05374       20.554
    -45.0965     -8.80875       20.258
     50.3713    -0.737319      -19.411
     50.6224    -0.721482      -19.462
     42.7943     -2.12614        6.418
     43.0101     -2.09419        5.946
      42.767     -1.87913        6.353
     43.0059     -1.85732        6.212
     41.7056     -2.23993        8.128
     41.9249     -2.22259        7.887
     41.7146     -2.01494        8.696
      41.921     -1.98769        8.082
     41.4856     -2.03501        8.877
     41.2671      -2.0512        9.128
     41.0383     -2.07225        9.279
     40.8212     -2.09632        9.632
     40.5817     -2.12027        9.682
     40.3527     -2.14034        9.874
     40.1336     -2.15867       10.065
     39.9056     -2.17857       10.246
     39.6661     -2.20252       10.307
     39.4357     -2.21471       10.377
     39.2069     -2.23576       10.488
     38.9781     -2.25682        10.63
     38.7491     -2.27689       10.771
     38.5199     -2.29597       11.032
     38.2798     -2.31088       11.023
     38.0512     -2.33292       11.103
     37.8222     -2.35299       11.265
     37.5926      -2.3752       11.345
     37.3523     -2.38913       11.436
     37.1235     -2.41019       11.537
     36.8949     -2.43222       11.618
     36.6548     -2.44714       11.668
     36.4357     -2.46547        11.84
      36.197     -2.48826       11.951
     35.9672     -2.50949       12.062
     35.7384     -2.53054       12.213
      35.508     -2.54273       12.283
     35.2793     -2.56477       12.354
     35.0407     -2.58756       12.445
     34.8103     -2.59975       12.546
     34.5808     -2.62295       12.587
     34.3408     -2.63786       12.607
     34.1121      -2.6599       12.698
     33.8719     -2.67383       12.758
      33.631      -2.6899       12.729
     33.3902     -2.70597       12.699
     33.1615     -2.72801        12.75
     32.9215     -2.74292        12.77
     32.6806     -2.75899       12.781
     32.4424     -2.78474       12.751
        32.2     -2.79194       12.661
     31.9605     -2.81589       12.702
     31.7311     -2.82791       12.812
     31.4904     -2.84497       12.722
     31.2399     -2.86376       12.633
     30.9992     -2.88081       12.573
     30.7591     -2.89572       12.573
     30.5186     -2.91376       12.473
     30.2786     -2.92868       12.473
     30.0282     -2.94845       12.353
     29.7972     -2.96279       12.344
     29.5569     -2.97671       12.384
     29.3066     -2.99649       12.244
     29.0545     -3.00642       12.124
     28.8138     -3.02348       12.044
     28.5622     -3.03636       11.803
     28.3116     -3.05515       11.713
     28.0432      -3.3005       11.026
     28.0613     -3.07493       11.583
     15.7539     -4.11488        7.551
     15.9813     -4.08595         7.37
     15.7706     -3.88143        7.978
     16.0215     -3.86461        7.988
     15.5225     -4.12725        7.622
     15.5402     -3.89362        8.079
     15.2728     -4.14488        7.602
     15.3019     -3.91838        8.079
     14.6018      -3.9677        8.261
      14.832     -3.95452        8.221
     14.3728     -3.98777        8.463
     14.1335      -4.0127        8.443
     13.8935     -4.02761        8.474
     13.6634     -4.04177        8.484
     13.4344     -4.06184        8.615
     13.1936     -4.07791        8.615
     12.9647     -4.09897        8.747
     12.7261     -4.12176        8.827
     12.4959     -4.13493        8.868
      12.267     -4.15599        9.009
     12.0258     -4.17009         9.06
     11.7877     -4.19583         9.06
     11.5565     -4.20918        9.091
      11.318     -4.23296        9.151
     11.0876     -4.24515        9.212
     10.8476     -4.26006        9.232
     10.6084     -4.28598        9.213
      10.368     -4.29892        9.304
     10.1271     -4.31499        9.294
      9.8985     -4.33703        9.395
     9.66812     -4.34922        9.446
     9.42881     -4.37416        9.486
     9.18875     -4.38907        9.507
     8.95043     -4.41383        9.527
     8.69832     -4.42376        9.377
     8.45728     -4.43884        9.377
      8.2174     -4.45474        9.368
     7.97809     -4.47968        9.408
     7.73804     -4.49459        9.429
     7.49798      -4.5095        9.439
     7.25867     -4.53443         9.44
     7.00738      -4.5432         9.37
     6.77792      -4.5664        9.401
     6.52662     -4.57517         9.31
     6.28714     -4.59912        9.351
     6.04709     -4.61403        9.372
     5.80622      -4.6301        9.382
     5.56633       -4.646        9.312
     5.32547     -4.66207        9.323
     5.07573      -4.6797        9.273
      4.8366     -4.70562        9.253
     4.60587     -4.71584        9.394
      4.3774     -4.73887        9.455
     4.13717     -4.75279        9.506
     3.89803     -4.77871        9.496
      3.6578     -4.79264        9.527
     3.41693     -4.80871        9.527
     3.18829     -4.83075        9.618
     2.94742     -4.84682        9.588
     2.69769     -4.86445        9.538
     2.46806     -4.88667        9.629
       2.228     -4.90158         9.62
     1.98811     -4.91748         9.62
     1.75912     -4.93754        9.761
     1.52874     -4.94974        9.852
     1.28961     -4.97565        9.832
     1.04856     -4.99074        9.853
    0.808332     -5.00467        9.913
    0.570011     -5.02943        9.924
    0.351038     -5.04874       10.065
    0.110807     -5.06267       10.116
   -0.118824     -5.08488       10.206
   -0.349207     -5.09708       10.307
   -0.587702     -5.12085       10.348
   -0.828571     -5.13692       10.348
    -1.06863     -5.15183       10.359
     -1.2971     -5.17486       10.399
    -1.52691     -5.19608        10.52
    -1.75746     -5.20729       10.611
    -1.99735     -5.22319       10.581
    -2.23665     -5.24812       10.612
    -2.47671     -5.26303       10.633
    -2.71677     -5.27795       10.653
    -2.94623     -5.30114       10.714
    -3.19596     -5.31878       10.664
    -3.42651     -5.32998       10.765
    -3.65597     -5.35318       10.816
    -3.89603     -5.36809       10.826
    -4.10394     -5.39257       11.098
    -4.31086     -5.41687       11.399
    -4.53018     -5.43422       11.641
    -4.75883     -5.45625       11.722
     -4.9997     -5.47233       11.692
    -5.23975     -5.48724       11.692
    -5.46858     -5.50829       11.833
    -5.64474     -5.53428       12.316
    -5.83249     -5.55215       12.768
     -6.0309     -5.57292        13.14
    -6.24813     -5.60208       13.322
    -6.47695     -5.62314       13.443
    -6.68561     -5.63759       13.694
    -6.90476     -5.65592       13.916
    -7.12217     -5.68411       14.077
    -7.33146      -5.7007       14.298
    -7.53937     -5.72518        14.59
    -7.75835     -5.74449       14.721
    -7.98734     -5.76456       14.872
    -8.20787     -5.77502       14.993
    -8.43652     -5.79706       15.074
    -8.66552     -5.81713       15.205
    -8.86276     -5.83871       15.557
    -9.06065     -5.86243       15.839
    -9.25807     -5.88302       16.221
    -9.91761     -6.02978       20.482
    -9.72922     -6.00976        20.13
    -10.1149     -6.05136       20.844
    -10.3228     -6.07584       21.106
    -10.5311     -6.09226       21.317
    -10.7404     -6.10885       21.538
    -10.9692     -6.12991       21.629
    -11.1988     -6.15212        21.71
     -11.429      -6.1653        21.77
    -11.6846     -6.42055       21.485
    -11.6577     -6.18734       21.841
    -11.9036     -6.43987       21.606
    -11.8767     -6.20665       21.952
    -12.1446     -6.45496       21.646
    -12.1063     -6.22887       22.053
    -13.3296     -6.30545       21.754
    -13.0571     -6.28991       22.025
      -13.59     -6.32598       21.634
    -13.8413     -6.33475       21.554
    -14.0601     -6.35505       21.635
     -14.279     -6.37437       21.776
    -14.5087     -6.39658       21.876
     -14.739     -6.40877       21.947
    -14.9359     -6.43232       22.219
    -15.1658     -6.45355        22.31
    -15.4056     -6.46945         22.3
    -15.6465     -6.48552        22.27
    -15.8548     -6.50194       22.482
    -16.0732     -6.53029       22.653
    -16.2719       -6.544       22.914
    -16.5005     -6.56603       22.995
    -16.7205     -6.58553       23.116
    -16.9079     -6.60537       23.498
    -17.0623     -6.63362       24.162
     -17.812     -6.72417         25.6
    -17.6141     -6.70045       25.318
    -18.0518     -6.74007        25.58
    -18.2613     -6.75568       25.801
    -18.4278     -6.77894       26.354
    -18.6038     -6.80591       26.747
     -18.802     -6.82767       27.088
    -18.9579     -6.84804       27.691
    -19.1031     -6.87669       28.315
    -19.2907     -6.89555       28.697
    -19.4886     -6.91927       28.958
    -19.7075     -6.93859       29.099
    -19.8949     -6.95843       29.472
    -20.1356     -6.97549       29.382
    -20.3434     -7.00095       29.643
    -20.5527     -7.01754       29.824
    -20.7925     -7.03344       29.825
    -21.0113     -7.05374       29.906
    -21.2319      -7.0642       29.986
    -21.4615     -7.08641       30.087
    -21.6805     -7.10573       30.208
    -21.8993     -7.12603       30.299
    -22.0656     -7.15028       30.792
    -22.2435     -7.16642       31.244
    -22.4412     -7.19112       31.455
    -22.6602     -7.21044       31.576
    -22.8792     -7.22976       31.717
    -23.0981     -7.24908       31.868
    -23.3283     -7.26225       31.899
     -23.526     -7.28696        32.13
    -23.7353     -7.30356       32.302
    -23.9332     -7.32728       32.583
    -24.1319     -7.34098       32.825
    -24.3298      -7.3647       33.096
     -24.561     -7.37805       33.117
    -24.7799     -7.39737       33.268
    -24.9987     -7.41767       33.349
    -25.2272      -7.4407       33.389
    -25.4479     -7.45017        33.51
    -25.6774     -7.47336       33.531
    -25.9172     -7.48926       33.541
    -26.1581     -7.50533       33.511
    -26.3769     -7.52563       33.572
    -26.6073     -7.53782       33.653
    -26.8147     -7.56525       33.814
    -27.0238     -7.58284       33.965
    -27.2234     -7.59671       34.207
    -27.4521     -7.61875       34.287
    -27.6831     -7.63308       34.308
    -27.9021      -7.6524       34.439
    -28.1321     -7.66656       34.429
    -28.3925     -7.68709       34.299
    -28.6235     -7.70142       34.289
    -28.8425     -7.72074       34.441
    -29.0613     -7.74104       34.511
    -29.2706     -7.75764       34.723
    -29.4797     -7.77522       34.864
    -29.7196     -7.79112       34.844
    -29.9701     -7.80991       34.764
    -30.1996     -7.83311       34.785
    -30.4298     -7.84628       34.845
    -30.6488      -7.8656       34.956
    -30.8895     -7.88266       34.866
    -31.1197     -7.89583       34.937
    -31.3482     -7.91886       34.967
    -31.6004      -7.9278       34.857
    -31.8396     -7.95372       34.828
    -32.0487      -7.9713       34.989
    -32.2677     -7.99062        35.12
    -32.5293     -8.00425       34.899
    -32.7597     -8.01644        34.95
    -32.9997     -8.03135        34.97
     -33.229     -8.05554       34.971
    -33.4909      -8.0672       34.821
    -33.7316     -8.08426       34.741
    -33.9814     -8.10189       34.691
    -34.2221     -8.11895       34.651
    -34.4525     -8.13114       34.702
    -34.6817     -8.15532       34.722
     -34.933     -8.16409       34.592
    -35.1723     -8.18902       34.613
     -35.413     -8.20608       34.563
    -35.6961     -8.21334       34.282
     -35.977     -8.23241       33.951
    -36.2293     -8.24136       33.851
     -36.479     -8.25899       33.811
    -36.7199     -8.27506       33.761
    -36.9801     -8.29658       33.621
    -37.2419     -8.30922       33.431
    -37.5135     -8.32361        33.22
    -37.7956     -8.34188       32.929
    -38.0675     -8.35528       32.739
    -38.3072     -8.37216       32.689
    -38.6219     -8.37791       32.247
    -38.9032     -8.39502       31.957
    -39.1871     -8.40344       31.646
    -39.5096     -8.42274       31.094
    -39.7609     -8.43151       31.034
    -39.9701     -8.44909       31.165
    -40.2094     -8.47402       31.185
    -40.4501     -8.49108       31.146
      -40.69     -8.50698       31.116
    -40.9407     -8.52478       31.066
    -41.1707     -8.53894       31.066
    -41.4327     -8.55061       30.916
    -41.6929     -8.57212       30.766
    -41.9954     -8.58384       30.425
    -44.9447     -8.55249       19.871
    -44.6007     -8.53957       20.473
      43.224     -1.83308         5.84
     43.0246     -1.62961        6.809
     43.2096     -1.60206        5.915
     42.7974     -1.65953        7.001
     42.1609     -1.97179        8.102
     41.9399     -1.76096         8.65
     42.1688      -1.7399        8.529
     41.7203     -1.77634        8.972
     41.4929     -1.80527        9.173
     41.2648     -1.82516        9.365
     41.0452     -1.84054        9.666
     40.8067     -1.86432        9.717
     40.5779     -1.88537        9.848
     40.3489     -1.90544       10.029
     40.1294      -1.9218       10.311
     39.9124     -1.94686       10.653
     39.6836     -1.96791       10.774
     39.4451     -1.99169       10.825
     39.2139     -2.00504       10.875
     38.9752     -2.02783       10.996
      38.745       -2.041       10.997
     38.5064     -2.06379       11.097
     38.2776     -2.08485       11.239
     38.0477     -2.10607        11.36
     37.8296     -2.12423       11.551
     37.6006      -2.1443       11.712
     37.3595     -2.15939       11.742
     37.1307     -2.18044       11.853
     36.9021     -2.20248       11.954
      36.662     -2.21739       11.975
     36.4322     -2.23862       12.086
     36.2034     -2.25968       12.207
     35.9738     -2.27071       12.348
     35.7456      -2.3008       12.529
     35.5152     -2.31299        12.61
     35.2753     -2.32889        12.58
     35.0358     -2.35284       12.621
      34.807     -2.37389       12.762
     34.5765      -2.3851       12.873
      34.348     -2.40812       12.903
     34.1079     -2.42303       12.924
     33.8669     -2.43812       12.934
     33.6287     -2.46386       12.935
     33.3877     -2.47895       12.935
      33.147       -2.496       12.875
     32.9168     -2.50918       12.926
     32.6767     -2.52409       12.916
     32.4374     -2.54902       12.927
     32.1975     -2.56492       12.917
     31.9673      -2.5781       12.948
     31.7266     -2.59515       12.898
     31.4858     -2.61122       12.858
     31.2471     -2.63401       12.959
     31.0171     -2.64817       12.959
     30.7665     -2.66697       12.849
      30.526     -2.68501       12.759
     30.2856     -2.69795        12.87
     30.0449       -2.715        12.78
     29.8042     -2.73206         12.7
     29.5547     -2.75068        12.62
      29.314     -2.76773       12.561
     29.0715     -2.77494        12.47
     28.8221     -2.79454        12.35
     28.5702     -2.80546        12.17
     28.3293     -2.82153        12.11
     28.0791     -2.84229        11.96
     27.8093     -3.08584       11.383
      27.827     -2.85222        11.81
     16.2391     -3.83741        7.776
     16.4572     -3.81926        7.555
     16.2672     -3.61109        8.233
     16.5081     -3.59502        8.283
     16.0384     -3.63215        8.374
     15.7981     -3.64607        8.445
     15.5573     -3.66214        8.405
     15.3285      -3.6832        8.516
     15.0715     -3.93057         8.19
     15.0882     -3.69713        8.587
     14.8491     -3.72304        8.587
     14.6187     -3.73523        8.668
     14.3802     -3.75901        8.699
     14.1392      -3.7741        8.719
     13.9212     -3.79324         8.88
     13.6801     -3.80833        8.871
     13.4418     -3.83309        8.921
     13.2113     -3.84429        9.032
     12.9704     -3.86036        9.002
     12.7319     -3.88414        9.083
      12.491     -3.90021        9.054
      12.262     -3.92028        9.215
      12.022     -3.93519        9.215
     11.8032     -3.95549        9.336
     11.5645     -3.97828        9.417
     11.3333     -3.99163        9.488
      11.095     -4.01639        9.508
      10.854     -4.03148        9.499
     10.6236     -4.04367        9.579
     10.3853     -4.06843         9.62
      10.133     -4.07737          9.5
     9.89482     -4.10312         9.51
     9.66346     -4.11548        9.581
     9.42496     -4.13926        9.632
      9.1849     -4.15417        9.642
     8.94403     -4.17024        9.653
     8.69448     -4.18886        9.563
     8.45343     -4.20394        9.583
     8.22496     -4.22697        9.604
     7.97407     -4.24379        9.604
     7.74386     -4.25697        9.635
      7.5038     -4.27188        9.645
     7.25309     -4.28968        9.595
     7.01239     -4.30674        9.556
     6.77251     -4.32264        9.526
     6.52162     -4.33946        9.496
     6.28347      -4.3652        9.507
     6.04243     -4.38029        9.517
     5.80237      -4.3952        9.528
     5.56231     -4.41011        9.538
     5.33285     -4.43331        9.579
      5.0928     -4.44822        9.599
     4.85349     -4.47316         9.62
     4.61343     -4.48807         9.65
     4.37256     -4.50414        9.631
     4.13251     -4.51905        9.621
     3.89401     -4.54283        9.672
     3.66299     -4.55716        9.692
     3.42276     -4.57109        9.733
     3.18345     -4.59602        9.753
     2.94374      -4.6129        9.714
     2.71319     -4.62411        9.824
     2.47388     -4.64904        9.845
     2.23365     -4.66297        9.906
     2.00483     -4.68403       10.027
     1.77462      -4.6972       10.037
     1.53549     -4.72312       10.048
     1.29526     -4.73705       10.098
      1.0552     -4.75196       10.129
    0.825742     -4.77516       10.169
    0.585511     -4.78908        10.22
    0.344642     -4.80515        10.19
    0.126481     -4.82331       10.372
   -0.112998     -4.84726       10.422
   -0.353056     -4.86217       10.453
   -0.581703     -4.88421       10.534
   -0.822745      -4.8993       10.544
    -1.06107     -4.92406       10.565
    -1.30211     -4.93915       10.585
    -1.53232     -4.95232       10.636
    -1.76096     -4.97436       10.727
    -2.01185     -4.99118       10.697
      -2.231     -5.00952       10.878
    -2.45947     -5.03254       10.909
    -2.68986     -5.04473        11.03
    -2.92916     -5.06966        11.02
    -3.17889      -5.0873        10.99
     -3.3996     -5.09677       11.121
    -3.64858     -5.12442       11.102
    -3.88864     -5.13933       11.112
    -4.09794     -5.15593       11.324
    -4.28412     -5.18267       11.826
     -4.5031     -5.20198       11.957
    -4.74315      -5.2169       11.978
    -4.99405     -5.23372       11.958
    -5.21284     -5.25402       12.069
    -5.43216     -5.27137        12.28
    -5.64957     -5.29955       12.482
    -5.81525     -5.32166       13.055
    -6.02316     -5.34613       13.357
    -6.23182     -5.36058       13.628
    -6.44923     -5.38876        13.83
    -6.65887     -5.40339       14.111
    -6.88752     -5.42543       14.192
    -7.10667     -5.44376       14.353
    -7.32564     -5.46308       14.494
    -7.52289     -5.48466       14.856
    -7.75269     -5.50589       14.987
    -7.97167     -5.52521       15.138
    -8.20031     -5.54724       15.199
     -8.4307     -5.55944         15.3
    -8.65952     -5.58049       15.411
    -8.85677     -5.60207       15.743
    -9.06433     -5.62851       15.974
     -9.2738     -5.64413       16.216
    -9.54356     -5.98007       19.738
    -9.36705     -5.95606       19.215
    -9.52615     -5.75056       19.994
    -9.34014     -5.72284       19.531
    -9.71355     -5.77041       20.366
    -9.91178     -5.79216       20.688
    -10.1089     -5.81472        21.01
    -10.3263      -5.8429       21.191
    -10.5356      -5.8595       21.412
     -10.745     -5.87511       21.644
     -10.964     -5.89443       21.785
    -11.2025     -5.91821       21.835
    -11.4213     -5.93851       21.926
    -11.6623     -5.95359       21.967
    -11.8813     -5.97291       22.088
    -12.1003     -5.99223       22.229
    -12.3576     -6.23764       21.973
    -12.3193     -6.01155        22.36
    -12.5651     -6.26408       22.175
    -12.5593     -6.02646         22.4
    -13.7917      -6.1148       22.071
    -13.5412     -6.09601       22.171
    -14.0221     -6.12699       22.132
    -14.2523     -6.14017       22.162
    -14.4695     -6.16933       22.334
    -14.6999     -6.18152       22.404
    -14.8978     -6.20525       22.636
    -15.1071     -6.22184       22.867
    -15.3454      -6.2466       22.888
    -15.5977     -6.25555       22.767
    -15.8263     -6.27759       22.848
    -16.0453      -6.2969       22.989
    -16.2548     -6.31252       23.251
    -16.4736     -6.33282       23.342
    -16.6829     -6.34941       23.553
    -16.8591      -6.3754       24.026
     -17.024     -6.40753       24.599
    -17.2399     -6.65172       24.564
    -17.2112     -6.42836        24.91
    -17.4478      -6.6762       24.846
    -17.4304     -6.44669       25.072
    -17.6396     -6.46328       25.273
    -17.8474     -6.48874       25.514
     -18.047     -6.50262       25.776
    -18.2546     -6.52906       25.977
    -18.4534     -6.54178       26.299
    -18.6513      -6.5655       26.561
    -18.8274     -6.59149       27.003
    -18.9511     -6.62142       27.857
    -19.1174     -6.64567        28.36
    -19.3048     -6.66551       28.702
    -19.5141     -6.68211       28.903
    -19.7233     -6.69969       29.084
    -19.9424     -6.71802       29.245
      -20.15     -6.74447       29.437
    -20.3486     -6.75817       29.698
     -20.566     -6.78635        29.87
     -20.797     -6.80068        29.87
    -21.0158     -6.82099       29.991
    -21.2251     -6.83758       30.172
    -21.4538     -6.85962       30.253
    -21.6948     -6.87471       30.253
    -21.9136     -6.89501       30.334
    -22.1229     -6.91161       30.535
    -22.2891     -6.93684       30.998
    -22.4766      -6.9557        31.39
    -22.6953     -6.97699       31.451
    -22.9045     -6.99358       31.662
    -23.1233     -7.01388       31.753
    -23.3214     -7.03662       32.045
    -23.5195     -7.05936       32.346
    -23.7084     -7.07034       32.638
    -23.9158     -7.09777       32.829
    -24.1251     -7.11437       33.001
    -24.3344     -7.13096       33.222
    -24.5532     -7.15126       33.313
    -24.7834     -7.16444       33.323
    -25.0131     -7.18665       33.414
     -25.232     -7.20597       33.525
    -25.4622     -7.21915       33.555
    -25.6809     -7.24043       33.636
    -25.9008     -7.25992       33.737
    -26.1407     -7.27582       33.717
    -26.3693     -7.29786       33.798
    -26.5891     -7.31834       33.909
    -26.7983     -7.33592        34.06
    -27.0285     -7.34909       34.101
    -27.2474     -7.36841       34.232
    -27.4776     -7.38159       34.252
    -27.6964     -7.40189       34.343
    -27.9261      -7.4241       34.404
    -28.1668     -7.44116       34.334
    -28.4067     -7.45705       34.314
    -28.6369     -7.47023       34.365
     -28.846     -7.48781       34.516
    -29.0658     -7.50829       34.617
    -29.2847      -7.5276       34.728
    -29.4939     -7.54519       34.899
    -29.7338     -7.56108       34.849
    -29.9843     -7.57987       34.769
    -30.2031     -7.60018        34.87
    -30.4441     -7.61526        34.87
    -30.6743     -7.62844       34.911
    -30.9036     -7.65262       34.891
    -31.1435     -7.66852       34.852
    -31.3844     -7.68459       34.862
    -31.6243     -7.70048       34.842
    -31.8545     -7.71366       34.863
    -32.0841     -7.73587       34.914
    -32.3045     -7.74731       34.964
    -32.5647     -7.76882       34.824
    -32.8266     -7.78049       34.684
    -33.0551     -7.80351       34.694
    -33.2642     -7.82109       34.855
     -33.484     -7.84157       34.976
    -33.7353     -7.85034       34.876
    -33.9859     -7.86913       34.766
    -34.2266     -7.88619       34.726
    -34.4666      -7.9011       34.707
    -34.6951     -7.92412       34.767
    -34.9375     -7.93133       34.677
    -35.1977     -7.95284       34.537
    -35.4694     -7.96723       34.327
    -35.7629     -7.97837       33.955
    -36.0345     -7.99276       33.765
    -36.2851     -8.01155       33.665
    -36.5039     -8.03185       33.746
    -36.7242     -8.04329       33.816
    -36.9844      -8.0648       33.676
    -37.2561     -8.07919       33.456
    -37.5277     -8.09358       33.225
    -37.8107     -8.10084       32.964
    -38.0832     -8.11638       32.714
    -38.3538     -8.13059       32.533
    -38.6264     -8.14515       32.303
    -38.9172     -8.16597       31.962
    -39.2108     -8.17711       31.591
    -39.5563     -8.18117       30.948
    -39.8376     -8.19828       30.677
    -40.0574     -8.21875       30.798
    -40.2762     -8.23906       30.879
    -40.5162     -8.25397       30.889
    -40.7571     -8.27004        30.86
    -41.0077     -8.28883        30.78
    -41.2686     -8.30032        30.63
    -41.5192     -8.31911        30.54
    -41.7697     -8.33791        30.47
      42.794      -1.4215        7.287
     43.0105     -1.39957        6.844
     42.5921     -1.68759        7.564
     42.5877     -1.44974         7.86
     42.3626     -1.70471        7.896
     42.3722     -1.48267        8.303
     42.1647     -1.50402        8.725
     41.9466     -1.52826        9.087
       41.72     -1.55603        9.379
     41.5009     -1.57437         9.56
     41.2605     -1.58731        9.671
     41.0315     -1.60738        9.812
     40.8042      -1.6373       10.013
     40.5849     -1.65464       10.215
     40.3447     -1.66857       10.285
     40.1174     -1.69849       10.477
     39.9101     -1.72082       10.859
     39.6691     -1.73591       10.849
     39.4405     -1.75794        10.97
     39.2002     -1.77187       11.031
     38.9716     -1.79391       11.082
     38.7426     -1.81398       11.273
     38.5138     -1.83503       11.404
     38.2725     -1.84913       11.444
     38.0544     -1.86729       11.626
     37.8246     -1.88852       11.767
     37.5861      -1.9123       11.838
     37.3559     -1.92547       11.888
     37.1269     -1.94554       12.039
     36.8981      -1.9666        12.16
     36.6596     -1.99037       12.251
     36.4284     -2.00372       12.251
     36.1996     -2.02477       12.403
     35.9706     -2.04484       12.544
     35.7305     -2.05976       12.584
     35.5019      -2.0818       12.655
     35.2727     -2.10088       12.856
     35.0318     -2.11695       12.867
     34.8032     -2.13899       12.948
     34.5631      -2.1539       12.958
     34.3319     -2.16725       12.989
     34.1031      -2.1883       13.099
     33.8634     -2.20519        13.04
     33.6223     -2.22027        13.05
     33.3951     -2.25019       13.242
     33.1647     -2.26238       13.302
     32.9142     -2.28117       13.192
     32.6743     -2.29707       13.172
     32.4431     -2.31042       13.213
     32.1935     -2.32904       13.133
     31.9625     -2.34337       13.133
      31.724     -2.36715       13.174
     31.4831     -2.38322       13.174
     31.2433     -2.39911       13.135
     31.0022      -2.4142       13.145
     30.7625     -2.43108       13.075
     30.5216     -2.44715       13.066
     30.2818     -2.46305       13.036
     30.0409     -2.47912       13.006
     29.8002     -2.49617       12.926
     29.5619     -2.52093       12.947
     29.3098     -2.53086       12.807
     29.0691     -2.54792       12.727
     28.8292     -2.56382       12.677
     28.5788     -2.58359       12.587
     28.3364      -2.5908       12.477
     28.0965      -2.6067       12.447
     27.8463     -2.62746       12.277
     27.5768     -2.87298       11.649
      27.594      -2.6364       12.197
      27.336     -2.88905        11.62
     27.3438     -2.65716       12.016
     27.0635     -2.89851       11.178
     27.0919     -2.66808       11.856
     16.9655     -3.55193        8.081
     17.1944     -3.53087         7.95
      17.004     -3.32074        8.689
     17.2233     -3.30339        8.488
     16.7369     -3.57397        8.122
     16.7536     -3.34052        8.589
     16.5151     -3.36429         8.62
     16.2742     -3.38036          8.6
     16.0344     -3.39626          8.6
     15.8054     -3.41633        8.741
      15.575     -3.42852        8.822
     15.3357     -3.45345        8.863
     15.1165     -3.47179        9.014
     14.8765      -3.4867        9.054
      14.638     -3.51047        9.105
     14.4068     -3.52382        9.136
     14.1669     -3.53972        9.126
     13.9276     -3.56465        9.157
     13.6874     -3.57858        9.197
     13.4587     -3.60062        9.278
     13.2066     -3.61055        9.178
     12.9778      -3.6316        9.299
      12.749     -3.65266         9.39
     12.5081     -3.66873         9.39
      12.268     -3.68364         9.38
     12.0392     -3.70469        9.511
     11.7993     -3.72059        9.502
       11.56     -3.74553        9.533
       11.32     -3.76044        9.523
     11.0788     -3.77454        9.583
     10.8503     -3.79756        9.654
     10.6199     -3.80975        9.705
     10.3806     -3.83469        9.746
     10.1405      -3.8496        9.746
     9.90048     -3.86451        9.756
     9.65961     -3.88058        9.737
     9.40906     -3.89937        9.647
     9.16901     -3.91429        9.677
      8.9297     -3.93922        9.708
     8.69932     -3.95141        9.759
     8.45926     -3.96632        9.789
     8.22094     -3.99108         9.82
      7.9799     -4.00617         9.82
     7.74001     -4.02207          9.8
      7.4893     -4.03987        9.741
     7.24941     -4.05577        9.741
     7.00837     -4.07085        9.741
     6.76924     -4.09677        9.722
     6.52918     -4.11169        9.742
      6.2893     -4.12758        9.713
     6.04825     -4.14267        9.723
     5.80837     -4.15857        9.713
     5.57874     -4.18078        9.794
     5.32901     -4.19841        9.754
     5.08796      -4.2135        9.745
     4.84791     -4.22841        9.765
     4.61926     -4.25045        9.846
     4.37839     -4.26652        9.836
     4.14957     -4.28757        9.957
     3.90969     -4.30347        9.958
     3.66882     -4.31954        9.928
     3.43032     -4.34332        9.989
     3.19994     -4.35551       10.039
      2.9589     -4.37059        10.05
     2.72075     -4.39634       10.061
     2.49019     -4.40754       10.151
     2.25089     -4.43248       10.202
       2.011     -4.44837       10.182
      1.7812      -4.4696       10.283
     1.53147     -4.48723       10.254
     1.30126     -4.50041       10.294
     1.07163     -4.52262       10.375
    0.831221     -4.53557       10.456
    0.591337     -4.55146       10.426
     0.36269      -4.5735       10.517
    0.123211     -4.59745       10.578
   -0.106999     -4.61063       10.608
   -0.345493      -4.6344       10.679
   -0.564466     -4.65372        10.84
   -0.805508      -4.6688        10.82
    -1.04574     -4.68273       10.891
    -1.28562     -4.69863       10.871
    -1.51508     -4.72183       10.922
    -1.76499     -4.73847       10.902
    -1.98477     -4.75895       11.023
    -2.21533     -4.77016       11.114
    -2.45347      -4.7959       11.115
    -2.69371     -4.80983       11.195
    -2.92253     -4.83088       11.306
    -3.15372     -4.84423       11.317
    -3.39221     -4.86801       11.377
    -3.61119     -4.88733       11.529
     -3.8619     -4.90513       11.499
    -4.07022     -4.92156        11.71
    -4.25721     -4.94945       12.163
    -4.49744     -4.96338       12.213
    -4.72609     -4.98542       12.304
    -4.96615     -5.00033       12.315
    -5.20528     -5.02625       12.305
    -5.41475     -5.04186       12.536
    -5.62185     -5.06518       12.868
    -5.82008     -5.08693        13.22
    -6.01733     -5.10851       13.592
    -6.20317     -5.13722       13.985
    -6.42232     -5.15555       14.156
    -6.64164      -5.1729       14.387
    -6.89218     -5.19169       14.287
    -7.10067     -5.20713       14.569
     -7.3084     -5.23259        14.82
    -7.51631     -5.25706       15.072
    -7.73528     -5.27638       15.203
    -7.95426      -5.2957       15.384
    -8.17259     -5.31287       15.596
    -8.41363     -5.32796       15.626
    -8.62137     -5.35342       15.868
    -8.82829     -5.37772       16.129
    -9.03742      -5.3953       16.311
    -9.23565     -5.41705       16.663
    -9.51859     -5.52279        20.22
    -9.34225     -5.49779       19.717
    -9.69631     -5.53991       20.652
     -9.9139     -5.56711       20.874
    -10.1232      -5.5837       21.075
    -10.3309     -5.60916       21.326
    -10.5499     -5.62848       21.478
     -10.769     -5.64681       21.629
     -10.988     -5.66613        21.78
    -11.2086     -5.67659        21.87
    -11.4374     -5.69764       22.001
     -11.666     -5.71968       22.072
    -11.8957     -5.74189       22.143
    -12.1152     -5.75217       22.254
    -12.3229     -5.77763       22.475
    -12.5526     -5.79984       22.586
    -12.8002     -6.04253       22.381
    -12.7926     -5.81476       22.567
    -13.0401     -6.05843       22.321
    -13.0236     -5.82909       22.567
    -16.8097     -6.15447       24.543
    -16.6019     -6.12901       24.321
    -17.0292     -6.16475       24.664
    -17.2273     -6.18749       24.976
    -17.4253     -6.21023       25.257
    -17.6441     -6.23053       25.378
    -17.8536     -6.24614        25.59
    -18.0612     -6.27258       25.801
    -18.2793     -6.29074       25.972
    -18.4579     -6.30902       26.374
    -18.6549     -6.33159       26.666
     -18.853     -6.35433       26.948
    -19.0404     -6.37417        27.33
     -19.186     -6.40085       28.003
    -19.3732     -6.42168       28.355
    -19.5711     -6.44541       28.597
    -19.7788     -6.47086       28.848
    -19.9564     -6.48897        29.23
    -20.1643     -6.51345       29.492
    -20.3629     -6.52715       29.764
    -20.5819     -6.54647       29.885
    -20.8007     -6.56677       29.996
    -21.0207     -6.58626       30.127
    -21.2395     -6.60656       30.227
    -21.4697     -6.61974       30.268
    -21.6885     -6.64004       30.369
    -21.8962      -6.6655        30.59
    -22.1055      -6.6821       30.802
    -22.3049     -6.69696       31.013
    -22.5119     -6.72126       31.275
    -22.7208     -6.73982       31.395
    -22.9301     -6.75642       31.607
    -23.1282     -6.77916       31.878
    -23.3156       -6.799       32.261
    -23.5038        -6.82       32.572
    -23.7015     -6.84471       32.804
    -23.9098     -6.86113       32.985
    -24.1077     -6.88486       33.257
    -24.3168     -6.90244       33.418
    -24.5465     -6.92465       33.469
    -24.7556     -6.94223        33.64
    -24.9641     -6.95767       33.851
    -25.1935     -6.98087       33.912
    -25.4237     -6.99404       33.932
    -25.6636     -7.00994       33.912
    -25.8832      -7.0314       33.973
    -26.1338     -7.05019       33.883
    -26.3543     -7.06065       33.974
     -26.583     -7.08268       34.025
    -26.7923     -7.09928       34.236
    -27.0207      -7.1223       34.257
    -27.2519     -7.13565       34.307
    -27.4707     -7.15596       34.388
    -27.7009     -7.16913       34.428
    -27.9197     -7.18943       34.519
    -28.1817      -7.2011       34.359
    -28.4208     -7.22702       34.339
    -28.6415     -7.23649        34.46
    -28.8505     -7.25505       34.581
    -29.0791     -7.27709       34.642
    -29.2989     -7.29757       34.733
    -29.5179     -7.31689       34.894
    -29.7578     -7.33278       34.854
    -29.9985     -7.34984       34.774
    -30.2287     -7.36301       34.815
    -30.4378     -7.38059       34.986
    -30.6771     -7.40553       34.986
    -30.9284      -7.4143       34.886
    -31.1579      -7.4375       34.927
    -31.3985     -7.45455       34.877
    -31.6384     -7.47045       34.847
    -31.8791      -7.4875       34.778
    -32.0983     -7.50584       34.929
    -32.3283        -7.52       34.909
    -32.6112     -7.52824       34.618
    -32.8836     -7.54379       34.387
     -33.144     -7.56431       34.247
    -33.3531      -7.5819       34.438
    -33.5404     -7.60272        34.74
    -33.7495      -7.6203       34.901
         -34      -7.6391       34.791
    -34.2716     -7.65348       34.581
    -34.5019     -7.66666       34.611
    -34.6996     -7.69137       34.813
    -34.9519     -7.70031       34.733
    -35.2121     -7.72182       34.582
    -35.5046     -7.73279       34.231
    -35.7981     -7.74393        33.86
    -36.0698     -7.75831        33.64
    -36.2886     -7.77862        33.72
    -36.4977      -7.7962       33.881
    -36.7482     -7.81499       33.812
    -37.0003     -7.82492       33.691
    -37.2607     -7.84545       33.561
    -37.5322     -7.86082       33.311
    -37.8247     -7.87178       32.959
    -38.0964     -7.88617       32.759
     -38.368     -7.90056       32.558
    -38.6406     -7.91512       32.348
    -38.9331     -7.92608       31.957
    -39.2576     -7.93455       31.445
    -39.5817     -7.94499       30.873
    -39.8947     -7.96059       30.401
    -40.1455      -7.9784       30.381
    -40.3544     -7.99696       30.502
    -40.5943     -8.01286       30.473
     -40.845     -8.03067       30.423
    -41.0851     -8.04558       30.413
    -41.3161     -8.05991       30.424
    -41.5974     -8.07702       30.153
     -41.869     -8.09141       29.942
      42.801     -1.19077        7.653
     43.0083     -1.16844        7.271
     42.5948     -1.21901        8.247
     42.3777     -1.24308        8.629
     42.1604     -1.26616        9.021
     41.9426     -1.29237        9.293
      41.715     -1.32032        9.554
      41.487     -1.34022        9.766
     41.2582     -1.36127        9.877
      41.029     -1.38036       10.068
     40.8099     -1.39869       10.289
     40.5807     -1.41777       10.491
     40.3519     -1.43883       10.622
     40.1229      -1.4589       10.773
     39.9176     -1.48696       11.366
     39.6771       -1.505       11.256
     39.4363     -1.52107       11.216
     39.2076     -1.54311       11.307
     38.9674     -1.55704       11.368
     38.7386     -1.57809       11.489
     38.5096     -1.59816        11.64
     38.2685     -1.61325        11.67
     38.0399     -1.63529       11.731
     37.8112     -1.65733       11.842
     37.5708     -1.67027       11.923
     37.3534     -1.69845       12.134
     37.1132     -1.71238       12.215
     36.8836     -1.73459       12.296
     36.6554      -1.7535       12.487
     36.4257     -1.77571       12.568
     36.1954      -1.7879       12.669
     35.9553     -1.80282       12.649
     35.7265     -1.82387         12.8
     35.4977     -1.84493       12.911
      35.268     -1.86714       13.002
     35.0278     -1.88106       13.053
     34.7993     -1.90409       13.073
     34.5583     -1.91917       13.104
     34.3182     -1.93409       13.124
     34.0894     -1.95514       13.255
     33.8599     -1.97834       13.296
     33.6199     -1.99325       13.326
     33.3798     -2.00816       13.327
     33.1504     -2.03136       13.347
     32.9105     -2.04726       13.328
     32.6694     -2.06234       13.348
     32.4296     -2.07824       13.328
     32.2001     -2.10144       13.379
     31.9488     -2.11021       13.289
     31.7079     -2.12628       13.239
     31.4796     -2.15029        13.25
     31.2506     -2.17035       13.391
     31.0098     -2.18643       13.391
     30.7577     -2.19635       13.251
     30.5176     -2.21127       13.251
     30.2891     -2.23429       13.292
     30.0484     -2.25135       13.222
     29.8074     -2.26643       13.233
     29.5677     -2.28331       13.183
     29.3267      -2.2984       13.193
     29.0869     -2.31528       13.123
     28.8364     -2.33407       13.003
     28.5845     -2.34499       12.863
     28.3436     -2.36106       12.813
     28.1039     -2.37794       12.743
     27.8533     -2.39673       12.643
     27.6012     -2.40666       12.523
     27.3512      -2.4284       12.313
     27.1086     -2.43463       12.263
     26.8512     -2.68513       11.776
     26.8705     -2.46037       12.253
     26.5993     -2.69604       11.596
     26.6087     -2.47302       12.033
     26.3377     -2.70968       11.365
     26.3447     -2.47895       11.732
