 -18.0307  -13.7452  -3.20743
 -17.9638  -13.7474  -3.24711
 -13.5719  -14.0227 -0.644773
 -16.4121  -13.9514   -2.8337
 -15.0969  -13.4328  -2.16759
 -15.0925  -13.4332   -2.2031
 -15.1028  -13.4338   -2.2349
 -14.1846  -13.7197  -1.93603
 -13.4792  -14.0327   -1.7479
  -13.917   -13.571   -2.2282
 -13.8207   -13.574  -2.17208
 -13.7574  -13.6077  -2.16061
 -14.1376  -13.4101  -2.79429
 -12.6901  -14.4379   -3.4902
 -12.2884  -14.4888  -3.52089
 -19.0072  -13.5056   1.43896
 -16.6971  -13.0923  0.451493
  -14.227  -13.4526  0.497195
 -14.4338  -13.4266   0.35575
 -16.2161  -13.5706  -0.59043
 -13.7873  -13.5069  0.399416
 -13.8129  -13.4984  0.352657
 -14.2042  -13.5677 -0.203265
 -14.3177  -13.4564 -0.319561
 -14.2919  -13.5014 -0.345066
 -13.8508  -13.7947 -0.038677
 -13.8841  -13.7913 -0.084297
 -15.6249  -13.7075  -1.18765
 -17.9939  -13.7365  -2.94106
 -15.7167   -13.549  -1.93201
  -13.941  -13.7767 -0.706741
 -16.5708  -13.9405  -2.52914
 -15.7062  -13.4785  -2.22879
 -13.9669  -13.7631 -0.988636
 -16.4899  -13.9562  -2.89453
 -16.3309  -13.9626   -2.8364
 -14.1094  -13.7718  -1.42966
 -14.3878  -13.7528  -1.67266
  -16.314   -13.949   -2.9896
 -13.8114  -13.5633  -2.23426
 -14.3819  -13.3657  -3.20057
 -12.8834  -14.4101  -1.84986
 -13.3926  -13.7946   -2.4117
 -12.9791  -13.7727  -2.20039
 -13.2539  -14.3483  -2.66564
  -12.632  -14.4304  -2.56457
 -13.4421  -14.3243  -3.32287
 -12.8723  -14.4044  -2.92446
 -12.9381  -14.3949  -3.35623
 -14.5642  -11.6462   1.14926
  -18.742  -13.6294  0.635442
 -16.6325  -13.1233  0.512454
 -17.8383  -13.7387  0.390545
 -15.7728  -13.2327  0.376534
 -15.2641  -13.3061  0.517442
 -17.5833  -13.7904 -0.955314
 -17.4797  -13.8059 -0.956767
 -15.7673  -13.7539 -0.222482
 -16.4367  -13.2975 -0.859875
 -14.1397  -13.4669  0.343491
 -17.7384  -13.7344  -1.79983
 -15.0267  -13.6342 -0.712581
 -14.9682  -13.6438 -0.706925
 -17.3872  -13.8175  -2.43668
 -13.5413  -14.0171 -0.397847
 -13.8717  -13.7788 -0.832213
 -13.8179  -13.7574 -0.974325
 -13.3605  -14.0398 -0.971664
 -14.2316  -13.7243   -1.8574
 -14.3525  -13.5491  -2.52495
 -13.8882  -13.5609  -2.26677
 -18.9987  -13.6072    1.3614
 -16.0238  -13.2012  0.428686
 -17.3549  -13.7926 -0.310643
  -17.529  -13.7823 -0.592742
 -13.9821  -13.7763 -0.180472
 -13.8856  -13.7674 -0.888651
 -13.5621  -14.0225  -1.43362
 -13.7352  -13.6473  -2.63533
 -18.0283  -13.7233  0.067506
 -15.6908  -13.2552  0.390037
 -15.8482  -13.3411  0.321462
 -17.3717  -13.8514 -0.542599
 -14.3828  -13.4292  0.383977
 -14.9873  -13.6478 -0.109174
 -13.9854   -13.753   -1.0532
 -14.7978  -13.5149  -2.20085
  -14.464  -13.6995  -1.94922
 -13.5348  -13.8001  -2.53965
 -12.8617  -14.3925  -1.97366
 -13.4238  -13.5843  -2.87328
 -13.8574  -13.4947  0.387422
 -12.0884  -14.4894  -3.44439
 -14.1569  -13.7059 -0.301828
 -14.4515   -13.582 -0.785919
 -13.5605  -13.8282  -2.24337
 -14.6785  -13.7328 -0.672634
 -14.4224  -13.7563  -1.76772
 -13.6526  -13.7192  -2.56645
 -14.4339  -13.7232 -0.626731
 -13.8954  -13.8157  -1.28319
 -13.0268   -13.968  -1.36409
 -13.2008  -13.9102   -1.5949
   -12.16   -14.512  -3.25241
 -12.5372  -14.4394  -3.24431
 -12.6236  -14.4229   -3.1103
 -12.5855  -14.4391  -3.03136
 -13.0595   -14.367  -3.12119
 -15.9908  -14.0169  -3.51465
 -16.2251  -13.9746  -3.54635
 -16.3637  -13.9728  -3.50401
 -18.1926  -13.7203  -3.52423
  -12.755   -14.423  -2.44883
 -16.2551  -13.9664  -2.95983
 -18.3229  -13.6949  -3.20973
 -16.5534  -13.9311  -2.90752
   -16.53  -13.9384  -2.88869
 -17.3074  -13.8316   -2.5298
 -14.8025  -13.6567  -2.02328
 -17.7878  -13.7885  -2.52972
 -14.6297  -13.6807  -1.95109
 -17.2225  -13.8408  -2.20324
 -14.3269  -13.7229  -1.72603
 -13.5167  -14.0422   -1.6148
 -14.2334  -13.7368  -1.63996
 -18.1718  -13.7292  -2.17354
 -15.6376  -13.6744  -1.61105
 -14.5505  -13.7052  -1.30065
 -18.6071  -13.6578  -1.28118
 -16.4911  -13.2858  -0.76436
  -15.071  -13.6292 -0.573524
 -13.5546  -14.0192 -0.424784
 -18.4679  -13.6495 -0.687759
 -16.0061  -13.6723 -0.307041
 -16.2736  -13.6754   -0.3054
 -13.7291  -13.8095 -0.194383
 -17.3919  -13.8181 -0.340301
 -13.7765  -13.7993 -0.191874
 -16.3864  -13.4688 -0.120808
 -18.5327  -13.6714 -0.041239
 -18.4678  -13.6544 -0.028251
  -17.949  -13.7171  0.331989
   -18.14  -13.6901  0.340538
 -14.3395   -13.438   0.37557
 -16.2975  -13.1737  0.407783
 -18.5963  -13.6284   0.45648
 -17.9373  -13.7248  0.477421
 -18.5952  -13.6327  0.496906
 -14.7557  -13.3787  0.506378
 -15.4601  -13.2862  0.516404
  -14.819  -13.3706  0.516448
 -15.9085  -13.2238  0.573743
 -14.9095   -13.248  0.653568
 -18.8337  -13.6069  0.931505
 -14.1248  -11.7013   1.14202
 -13.0585  -14.3699  -2.98089
 -12.8749  -14.3931  -2.88468
 -12.7959  -14.4294  -2.56391
 -16.3072  -13.9567   -2.8683
  -15.046  -13.4073  -2.18866
 -16.8974  -13.8947  -2.50545
 -12.8951  -14.4012  -1.86766
 -16.9716  -13.8789  -2.40871
 -14.3719  -13.7121  -1.70678
 -14.5484  -13.6974  -1.72536
 -14.2631  -13.7368   -1.6595
  -17.546  -13.8112  -1.89009
 -13.9096  -13.7317  -1.05184
 -13.2185  -14.0733 -0.954994
  -13.596  -14.0244 -0.633883
 -13.3351  -14.0225 -0.613053
 -13.9593  -13.7799 -0.453493
 -14.3247  -13.4954 -0.390632
 -15.9553  -13.7203 -0.441978
 -15.5497  -13.7568 -0.392508
 -17.6947   -13.771  -0.26864
 -16.5152  -13.4589 -0.055813
 -13.7562  -13.5141  0.421006
 -18.0144    -13.71  0.478448
 -19.0242  -13.5243    1.3996
 -12.8567  -14.3836  -3.05449
 -15.3497  -13.2523  -2.82292
 -12.6466  -14.4334  -2.11841
 -14.3933  -13.7058  -2.09597
 -12.9088  -14.3931  -1.88485
  -14.604  -13.7011  -1.66054
 -14.9363  -13.6398 -0.994334
 -18.2389  -13.7022 -0.988094
 -14.1063  -13.6589  -0.15782
 -18.0821  -13.7222 -0.073928
 -17.7612  -13.7706  0.164814
 -16.3022   -13.303  0.223753
 -15.3684  -13.4672  0.283073
 -14.1817  -13.4647  0.354373
 -18.1687  -13.6968  0.507422
  -16.499  -13.1423  0.633276
 -17.4067  -12.3998   1.65654
 -12.1492  -14.5136  -3.27562
 -16.3062  -13.9959  -3.50893
 -12.3798  -14.4682  -2.70048
 -15.2354  -13.2878  -2.80027
 -12.9156  -14.4017   -1.8893
 -17.5531  -13.8366  -1.86015
   -13.62  -13.6966  -1.29468
 -18.2595  -13.7032  -1.83652
 -15.0224  -13.6339 -0.508972
 -13.9529  -13.4839  0.322023
 -15.4531  -13.2853  0.318346
 -14.5321   -13.406  0.558455
 -14.9171  -11.5942   1.13858
 -13.4532  -14.3458   -3.2723
 -16.3453  -13.9523   -3.5242
 -13.8674  -13.6229  -2.07375
 -17.2829  -13.8186  -2.47283
 -14.1953  -13.7436  -1.66357
 -17.6407  -13.7407  -1.86056
  -14.318  -13.7826  -1.00444
 -13.8591  -13.7766 -0.506124
  -18.311  -13.6756 -0.019676
 -16.3543  -13.1483  0.285413
 -13.8034  -13.4991  0.394775
 -12.8947  -14.4351  -3.27474
 -15.0306  -13.4953  -2.08622
 -15.0422  -13.5179  -2.05171
 -14.4392  -13.6992  -1.11783
 -13.4586  -14.0244 -0.387613
 -16.7052  -13.5135 -0.505163
 -14.1793  -13.6409 -0.149305
 -13.9409  -13.7974 -0.776014
 -14.2481  -13.5211 -0.186346
 -15.3564  -13.2786  0.528547
  -14.775   -11.601   1.14603
 -14.8736  -13.5524  -1.92602
 -13.8964  -13.7401 -0.196351
 -13.8861  -13.7556  -1.24656
 -16.4159  -13.1359  0.386984
 -13.6319   -13.792   -2.1881
 -13.4622   -13.796  -2.07378
 -14.1631  -13.8251 -0.805696
 -14.9572  -13.7594 -0.491445
 -14.0971  -13.8406 -0.480358
 -18.2434  -13.7116  -3.52316
 -17.0482  -13.8688  -3.68675
 -17.8223  -13.7578  -3.08303
 -18.0691  -13.7359  -2.92606
 -17.9646  -13.7445  -2.90783
 -13.8909  -13.7086  -3.30561
 -18.1061  -13.7204  -2.50524
 -17.4872  -13.8312  -2.57159
 -17.7427  -13.7746  -2.43377
  -14.653  -13.5224  -2.55367
 -14.4274   -13.548   -2.5499
 -12.5843  -14.4339  -3.23616
 -18.4615  -13.6837  -1.85559
 -17.8918  -13.7305  -1.89497
 -14.8248  -13.4626  -2.19624
 -13.0689  -14.3674  -2.92652
  -12.584  -14.4339  -2.98536
 -12.9165  -14.4057  -2.88841
 -15.6872  -13.5719  -1.92216
 -17.5846  -13.7857  -1.66761
 -13.8646  -13.5756  -2.21787
 -17.5918  -13.7752  -1.63181
 -13.9553  -13.5506  -2.15487
 -12.9077  -14.3878  -2.77997
 -14.8016  -13.6563   -2.0208
 -17.1228  -13.8456  -1.61933
 -14.6278  -13.6789  -1.94906
 -12.4971  -14.4455  -2.73615
 -14.6079  -13.6811  -1.93581
 -18.5809   -13.646  -1.09476
 -18.5164  -13.6449  -1.10975
 -14.2273  -13.7253  -1.97283
 -14.2465  -13.7295  -1.95386
 -12.7665  -14.4448  -2.55215
 -18.5568  -13.6683  -1.02347
 -15.7617  -13.5531  -1.49526
 -15.5891  -13.7313  -1.45706
 -14.3347  -13.7205  -1.69103
 -14.2778  -13.7332  -1.67363
   -15.75  -13.7216  -1.17256
 -12.6909   -14.428  -2.10453
 -14.9201  -13.6142  -1.05871
 -16.1304  -13.6531 -0.566291
 -17.9492   -13.722 -0.021193
 -18.0283  -13.7036  0.168685
  -18.673  -13.6339  0.476516
    -14.3  -13.6907  -0.73284
 -15.9594  -13.7284 -0.106919
 -14.3517  -13.4953 -0.450959
 -13.9146  -13.7779 -0.583723
 -13.3058  -14.0478 -0.853142
 -14.9746  -13.6484 -0.204144
 -14.8085  -13.6766   -0.1762
 -13.7275  -13.8011 -0.459166
 -14.1302  -13.6112 -0.223729
  -13.894  -13.7692 -0.232918
 -13.7746  -13.8003 -0.191221
 -14.7901  -11.6009  0.915345
 -14.5815  -11.6431  0.931867
 -14.7821  -13.3743   0.51782
 -13.9525  -13.4822  0.407996
 -13.7964  -13.5045  0.389642
  -14.223  -11.6855   1.05404
 -14.6833  -11.6287   1.27611
 -14.1871  -11.6958   1.13542
 -17.1923  -13.8522  -3.20342
 -17.1967   -13.835  -3.17037
 -17.0591   -13.856  -3.18327
  -16.518  -13.9328  -3.24789
 -17.4689  -13.8061  -2.88685
 -14.3704  -13.4846  -2.98798
 -16.7776   -13.905   -2.8822
 -18.3006  -13.6725  -2.51239
  -12.963  -14.4021  -3.23274
 -16.7307  -13.9086  -2.36619
 -17.2278  -13.8413  -2.20302
 -12.4774  -14.4574  -3.21432
 -12.4995  -14.4505  -3.18293
 -15.0534  -13.4086   -2.1887
 -12.4815  -14.4575  -3.10315
 -13.7613  -13.5861  -2.25935
 -12.6846  -14.4287  -2.74681
 -14.4476  -13.7104  -1.74154
 -15.9548  -13.6738  -1.17862
 -17.7749  -13.7642 -0.653232
 -15.0649  -13.6054  -1.05953
 -17.6829  -13.7769   -0.4974
 -15.1061  -13.6223 -0.963701
 -15.5249   -13.749 -0.532888
 -15.5168  -13.7605 -0.459913
   -14.93  -13.6526 -0.454074
  -13.845   -13.784 -0.761976
 -13.7696  -13.7877 -0.726173
 -13.8032  -13.7923 -0.696007
 -14.9639  -13.6523 -0.174323
 -15.3438  -13.2925  0.509303
 -13.8889  -13.7826 -0.083769
 -14.9092  -13.2426  0.675541
 -13.7491   -13.513  0.421259
 -18.2823   -13.699  -2.39507
  -13.561   -14.274  -3.29098
 -14.0192  -13.5592   -2.2483
 -13.7441   -13.644  -2.03458
 -14.6343  -13.6614  -1.83719
 -16.4597  -13.2762 -0.918466
 -17.4389  -13.7926 -0.376553
 -15.6197   -13.759 -0.804346
  -15.548  -13.7632 -0.774273
 -15.0398  -13.6309  -0.56462
 -13.7548  -13.7938 -0.696832
 -14.5169  -13.5416 -0.182716
 -18.9652  -13.3307   1.62038
 -14.9876    -11.58   0.91722
 -17.4199  -12.3458   1.64852
 -14.8917  -11.5984    1.1323
 -14.1935  -11.2847   1.67755
 -18.3162  -13.6671  -3.70461
  -17.438  -13.8113  -2.44893
 -13.3925  -13.5805  -2.87408
  -15.046  -13.3867  -2.40754
 -18.3763   -13.682  -1.82591
 -15.1676  -13.5446  -1.26105
   -14.48  -13.6883  -1.24335
 -17.7781  -13.7593 -0.192695
  -17.312   -13.818 -0.243708
 -18.0552  -13.7037  0.232626
 -17.7769  -13.7702  0.182918
  -16.642  -13.1303  0.459398
 -18.9417  -13.4287   1.60286
 -14.1686  -13.4559  0.517931
 -13.7358  -13.7275  -3.20041
 -14.6156  -13.7115  -1.28765
 -17.5712  -13.8083 -0.522755
 -14.9949  -13.6205  -1.05455
 -16.6999  -13.2938  0.245831
 -14.1237  -13.6023 -0.178049
 -19.0118  -13.3333   1.58441
 -14.5653  -11.6489   1.05964
 -14.3255  -13.5449  -2.99966
 -14.8286  -13.6311  -1.89147
 -15.7116  -13.5548  -1.52515
 -17.6157  -13.8075 -0.895379
 -14.0584  -13.7473  -1.36424
  -13.163  -13.8861  -1.52318
  -19.053  -13.2439   1.58233
 -13.7386  -13.8098  -1.06117
 -14.4416  -13.7027 -0.978924
 -13.9771  -13.4568   0.58752
 -14.4454  -13.6593 -0.470943
 -14.5501  -13.3739  -3.12029
 -13.4541  -13.9611  -2.46994
 -17.6466    -13.79  -3.12477
 -17.6402   -13.792  -3.07914
 -17.5826  -13.7783  -1.66747
 -14.6464   -13.468  -3.02684
 -15.2424  -13.4802  -2.44036
 -14.8239  -13.4576  -2.19877
 -18.8341  -13.6092  0.913785
 -15.9572  -13.6742   -1.1783
 -14.7825  -13.6606  -1.67736
 -18.7477   -13.495   1.51423
 -18.7318  -13.5699   1.43106
 -13.8172  -13.5544  -2.20464
 -14.2814   -13.728  -1.68099
  -15.046  -11.5846    1.1302
 -12.5137  -14.4553   -3.2027
 -14.3852  -13.6066 -0.713518
 -15.4679  -13.2894  0.564457
 -14.3542  -13.4843 -0.447552
 -12.6613  -14.4269  -2.52863
 -12.6568  -14.4203  -2.49869
 -12.6337  -14.4254  -2.50171
  -13.332  -14.0467 -0.951766
 -13.3383  -14.0455 -0.795386
 -14.1777  -13.4553  0.568167
 -16.5396   -13.933  -3.52366
 -17.3334  -13.8406   -1.3281
 -14.8796  -13.4518  -2.14275
 -17.6583  -13.7806 -0.296641
  -17.932  -13.7285  -0.03939
 -16.2851  -13.5112 -0.768852
 -19.0556  -13.5117   1.42233
 -13.8514  -13.5599  -2.20716
 -16.4833  -13.1566  0.452948
  -15.089  -13.5947  -1.03616
 -14.3417   -13.716  -1.70897
  -12.971  -14.3946  -3.22772
 -13.0087  -14.3833  -2.96658
 -12.9358  -14.3844  -2.74784
 -15.0697  -13.6365 -0.229908
 -14.3733  -13.6167 -0.710391
  -13.991  -13.7702  -1.00235
 -14.2848   -13.536 -0.389086
 -13.7399  -13.7929 -0.984183
  -13.728  -13.7935 -0.968989
 -13.8162  -13.7857 -0.719872
 -13.9163  -13.7756  -0.57876
    -13.6  -14.0142 -0.952672
 -13.8012  -13.7885 -0.444973
 -13.9025  -13.7805 -0.235717
 -13.7705  -13.7966 -0.215262
 -13.2995  -14.0148 -0.598758
 -16.3078   -13.944  -3.32296
 -17.3458  -13.8302   -1.8261
 -18.1645  -13.6831 -0.696158
  -14.337  -13.5061  -3.02949
 -14.3731  -13.4892  -2.97097
 -14.1604  -13.5083  -2.96895
 -15.0367  -13.4728   -2.1207
 -16.7614  -13.8915  -1.33043
 -16.7346  -13.9092   -1.3165
 -18.0788  -13.7116  0.090883
 -16.5409  -13.1367  0.515765
 -14.9138  -13.6498 -0.709332
 -12.8178  -14.4039  -2.92144
 -14.3975  -13.6063  -0.74992
 -12.1626  -14.4985  -3.32614
 -13.7874  -13.7907 -0.912697
 -13.7842  -13.7938 -0.401117
 -13.4923  -14.0235 -0.722003
 -17.4229  -13.8332  -2.87624
 -16.6498  -13.9201  -2.37617
 -17.9118  -13.7226  0.451402
 -18.9164  -13.4285   1.57591
 -13.8585  -13.5755  -2.27618
 -16.5257  -13.1358  0.303225
 -16.5017  -13.1377  0.310669
 -14.8442  -13.6427  -1.40727
 -16.1369  -13.1935  0.424515
 -13.8797  -13.7854 -0.557951
 -13.8021  -13.7991    -0.612
 -13.9078  -13.7712 -0.186979
 -13.8006  -13.8022 -0.093496
 -13.5095  -14.0265 -0.185793
 -15.0912  -13.2979  -2.92407
 -19.0969  -13.5294    1.2587
 -13.8057  -13.5665  -2.25301
 -16.6361  -13.1223  0.439147
 -13.7251  -13.6524  -2.06978
  -14.418   -13.782 -0.993431
 -15.2376  -13.3193  0.457475
 -14.2894  -13.5092 -0.350791
 -18.8747  -13.4827   1.47107
 -14.4138  -13.7165  -1.94121
  -16.279  -13.4804 -0.674344
 -19.0341  -13.3662   1.53936
  -18.982  -13.5205       1.4
 -14.6501  -13.7206  -1.22329
 -14.0202  -13.7904  -1.43032
 -14.9828  -13.5017   -2.1583
 -13.1119  -14.1581  -1.68756
 -14.2654  -13.5643  -1.76975
 -13.1367  -13.8665  -2.00671
 -13.0628  -14.3436  -2.64911
 -18.6816  -13.6318   -2.2919
 -19.0761  -13.5404   1.06756
 -19.0656  -13.5575   1.09284
 -17.4334  -13.8171  -3.28552
  -17.395  -13.8127  -2.60833
 -18.1494   -13.692  0.282899
 -17.8995  -13.7288  0.321241
 -14.6848   -11.627   1.27375
 -15.0714  -13.4687  -2.07637
 -14.6716  -13.4546  -3.01496
 -14.7815  -13.6571    -1.678
 -14.3685  -13.4704  -0.41791
 -14.3586  -13.4782  -0.44423
 -13.8307  -13.5707  -2.17181
 -14.0814  -13.4596    0.6179
 -12.8534  -14.3982  -3.03694
  -12.661  -14.4267  -2.53115
  -18.078  -13.6923  0.332956
 -15.0177  -13.4455  -2.16188
  -14.849  -13.5329  -1.89521
 -15.5552   -13.759 -0.382662
  -13.917  -13.7698 -0.720415
 -13.2277  -14.0641 -0.794793
 -17.9631  -13.7111  0.286204
 -17.9616  -13.6983  0.338512
 -15.0084  -11.5894   1.26104
 -14.6829  -13.7093  -1.83407
 -14.9422  -13.6518 -0.410206
 -16.6562  -13.9276  -2.36879
 -16.1357  -13.1896  0.364866
 -15.0187  -13.6409 -0.318217
 -12.9785  -13.7852  -2.14965
 -12.8805  -14.4034  -2.90824
 -18.9835  -13.2065   1.56504
 -17.8427  -13.7491  0.367541
 -14.3437  -13.8038   -1.0248
   -17.35  -13.8023  -0.30708
 -14.1087  -13.7402  -1.63236
 -13.6784  -13.7919  -2.01368
 -13.6543  -13.9712  -1.22571
 -14.4157  -13.7358 -0.931665
 -16.7063  -13.6777 -0.618337
 -14.6823  -11.6243    1.2723
 -14.5922  -11.6417   1.14262
 -18.0391  -13.7123 -0.993595
 -17.8521  -13.7496  -1.26545
 -17.0817  -13.8586  -3.69657
 -15.9051  -13.7217  -0.38814
 -16.8277  -13.8998  -3.23969
 -16.3944  -13.9643  -2.67208
 -14.4578  -13.4113   0.32178
 -15.1005  -13.4287   -2.2321
 -14.3134    -13.49 -0.414805
 -14.3819  -13.7171  -1.69136
 -13.9817  -13.7662 -0.203429
 -13.9572  -13.7735 -0.203661
  -14.255  -13.7343  -1.66138
 -13.7595  -13.8014 -0.225213
 -13.9113  -13.5677  -2.22219
 -13.8332  -13.5526  -2.23825
 -13.8162   -13.559  -2.23644
 -13.8056  -13.5718  -2.17043
 -13.5053  -14.3259  -3.44357
 -12.4619  -14.4633  -2.97702
 -12.4354  -14.4594  -3.14738
 -18.5079  -13.6537  -1.63398
 -18.2889  -13.6962  -2.45772
 -18.2315  -13.7187  -2.40787
 -17.2267  -13.8467  -1.31568
 -15.2142  -13.3163  0.433576
 -16.3835  -13.9498  -2.72852
 -15.6104  -13.7645 -0.790722
 -15.1455  -13.6258 -0.189888
  -15.164  -13.6224 -0.456485
 -15.1482   -13.624 -0.716473
 -14.9474  -13.6492 -0.177108
 -15.0522  -13.6347 -0.729192
 -14.9729  -13.6462 -0.451056
 -15.0969  -13.4273  -2.20002
 -14.3718  -13.6153 -0.712877
  -14.126  -13.6179 -0.254035
  -14.183  -13.7455  -1.59019
 -13.9286  -13.6048  -2.04027
 -13.7936  -13.5646  -2.23493
 -13.6027  -14.0128   -0.9503
 -13.3354  -14.0478 -0.790461
 -16.4361  -13.3704 -0.902385
 -14.8185  -13.4945  -2.21049
 -14.2735  -13.5026 -0.295259
 -13.9172  -13.5905  0.241788
 -13.9077  -13.7793 -0.835063
 -13.8698  -13.5521  -2.27103
 -14.0051  -13.7101  -3.29031
 -12.3877  -14.4704  -2.67929
 -19.0782  -13.5368   1.20873
 -15.8995  -13.2249  0.367807
  -14.443  -13.6961  -1.16955
 -13.9007  -13.6122  0.242853
 -13.9578  -13.7684 -0.954292
 -12.3909  -14.4691  -2.71998
 -14.4926  -13.7317  -1.24463
 -13.9507  -13.7721  -0.27192
 -14.0599  -13.7466    -1.369
 -13.7792  -13.8023 -0.090292
 -13.8677  -13.7683 -0.980293
 -12.8837  -14.3956  -2.89009
  -14.581  -13.6082 -0.879127
 -14.2937  -13.7937 -0.437809
 -13.7207  -13.6228  -2.58488
 -12.1119  -14.5048  -3.43238
 -13.6498   -13.834  -2.46698
 -12.9443  -13.9482  -1.55336
 -14.5903  -11.6412   1.07281
 -18.5139  -13.6435  0.456214
 -17.8568  -13.7402  -1.26824
 -15.2158  -13.3179  0.435032
 -16.4766  -13.2738 -0.863322
  -18.662  -13.6357  -2.52017
 -18.2956  -13.6868  -2.25573
 -17.7102  -13.7717  -1.82987
 -15.5167  -13.7745 -0.098377
 -18.0044  -13.7438  -2.58057
 -14.0616  -13.4665  0.496087
 -14.9819  -13.6527 -0.461046
 -14.3796  -13.4164 -0.388142
 -14.3309   -13.451 -0.359137
 -14.2682  -13.5133 -0.298031
 -14.3172  -13.4962 -0.414254
 -17.2203  -13.8363  -3.13335
 -14.1577  -13.6241 -0.270774
 -13.8744   -13.776 -0.743333
 -14.8658  -13.4385  -2.14465
 -14.1495   -13.744  -1.54511
  -14.414  -13.5418  -2.54503
 -13.4627  -14.0276  -1.39407
 -13.8387  -13.5593  -2.21949
 -13.7999  -13.5698  -2.18834
 -13.7872  -13.5654  -2.24643
 -13.4814  -14.3176  -3.46865
 -13.0053  -14.3858  -2.90572
 -13.1818  -14.3559  -3.32806
 -12.8129  -14.4016  -3.09906
 -17.9435  -13.7318  0.472466
 -16.1723  -13.1942  0.492197
 -16.1293  -13.1917  0.526266
 -15.7525  -13.2441  0.347592
 -18.7898   -13.622  -1.88026
 -14.8766   -13.367  0.494992
 -17.6831  -13.7768  -1.81103
 -18.2461  -13.7038  -2.46016
 -14.5607  -13.4008   0.43535
 -15.1229  -13.6328 -0.215205
 -14.9849  -13.6421 -0.231277
 -17.1067  -13.8551  -2.40702
 -16.5903  -13.9214  -1.87236
 -15.0575  -13.6359  -0.73338
 -14.9466   -13.638 -0.946168
 -16.3927  -13.9372   -2.8255
 -15.1262  -13.4188  -2.26829
 -16.5874  -13.9342  -3.51864
 -13.7699  -13.7945 -0.753811
 -16.1071  -13.9854  -3.54462
 -13.5983  -14.0112 -0.951648
 -13.2643  -14.0407 -0.868837
 -13.8889  -13.5769  -2.10037
 -13.9113  -13.5611  -2.22386
  -13.789  -13.6118  -2.06963
 -13.8147  -13.5677  -2.17108
 -13.4663  -14.0225  -1.73942
 -14.1523  -13.5106  -3.01195
 -13.6509  -13.7121  -3.20582
 -12.7653  -14.4018  -2.45951
 -12.5641  -14.4368  -2.42608
 -18.9918  -13.4198   1.58646
   -18.02  -13.7358 -0.944846
 -17.7631   -13.767  -1.09327
 -15.9676  -13.6682 -0.254821
 -18.2939  -13.6964  -2.45728
 -15.0943  -13.6307 -0.174737
 -14.3079  -13.4631  -0.31518
 -14.9416  -13.6457 -0.978207
 -13.9466  -13.7824 -0.404171
 -13.9791  -13.7837 -0.453564
 -16.3115  -13.9573  -2.98122
  -14.474  -13.7172  -1.20613
  -13.847  -13.7941 -0.499437
 -13.8423  -13.7835 -0.728985
 -13.7764  -13.7821 -0.978118
 -14.0955  -13.7566  -1.42874
  -13.514   -14.018 -0.918174
 -13.2521  -14.0461 -0.812754
 -13.7918  -13.5564  -2.22499
 -12.8742  -14.4013  -1.84718
 -13.5949  -13.7536   -3.2172
 -12.8697  -14.4069  -3.19818
 -12.3903  -14.4682  -2.67873
 -19.0264  -13.3879   1.57628
  -14.346  -11.6596     1.157
 -17.8376  -13.7352  0.385113
 -16.6513   -13.105  0.560212
 -16.4434  -13.3022 -0.846144
 -16.4752  -13.4382 -0.900861
 -13.8162  -13.4996  0.381549
 -13.7749   -13.791 -0.242357
 -13.7719  -13.7945 -0.507272
 -14.9894  -13.4106  -2.25048
 -13.7756  -13.7929 -0.762833
 -14.2018  -13.7346   -1.8775
 -13.5378  -14.0078 -0.913818
 -13.3181  -14.0444 -0.889245
 -13.3516  -14.0465 -0.964771
 -13.8047  -13.5615  -2.23725
  -13.953  -13.4821  0.420416
 -14.3384  -13.4727 -0.343352
 -15.5095  -13.7683  -1.53369
 -13.7908  -13.8034 -0.099226
 -14.3272  -13.7231  -1.67134
 -13.3514  -14.0454  -1.02097
 -13.1164   -14.066  -1.17361
 -13.0011  -14.3754  -2.96754
 -12.4301  -14.4606  -2.67834
 -15.8061  -13.1477  0.608773
 -17.4724  -13.7804 -0.278682
 -14.1975  -13.6972 -0.304982
 -12.2335  -14.4961  -3.37467
 -14.0582  -13.5266  -2.31256
 -19.0842  -13.6624   1.28466
 -14.6348  -13.7029  -1.24147
 -13.3161  -14.0465  -2.29145
  -14.364  -13.6222 -0.140074
  -14.676    -11.63  0.937334
 -18.1492    -13.69  0.326139
  -15.913  -13.2281  0.571315
 -15.8847  -13.2338  0.519643
 -14.5663  -13.4059  0.434158
  -14.365  -13.4267   0.35261
 -13.9057  -13.7778 -0.058675
 -15.7303  -13.7526 -0.949297
 -13.8451  -13.7923 -0.218848
 -14.9006  -13.6516 -0.726359
 -13.7918  -13.7945 -0.208906
 -14.2333  -13.8106 -0.457996
 -15.1622  -13.6156 -0.977846
  -17.527  -13.7788  -2.10046
   -17.04  -13.8841  -1.89336
  -13.916  -13.7724 -0.726554
 -13.8738  -13.7752 -0.744981
 -17.4409  -13.7985   -2.5211
 -17.0665  -13.8765  -2.38418
 -14.0004   -13.762 -0.968969
 -16.7359  -13.9247  -2.37855
 -13.2198  -14.0662 -0.798206
 -13.3377  -14.0505 -0.955201
 -14.5105  -13.7007  -1.73194
 -14.1523  -13.7402  -1.54988
 -14.8084  -13.6546  -2.02792
  -15.071   -13.436  -2.23537
 -13.8004  -13.5704  -2.18767
 -13.8405  -13.5557  -2.22194
 -13.9526  -13.6105  -2.55113
 -14.2856  -13.4947  -3.02607
 -13.0168  -14.3799  -2.55674
 -13.4964  -14.3133  -3.33989
 -13.0626  -14.3668   -3.1189
 -12.6153  -14.4282  -3.12428
 -18.9645  -13.2168   1.62929
 -18.9667  -13.5527   1.39707
 -14.0133  -11.7144   1.15622
 -16.5712  -13.1371  0.509447
  -18.536  -13.6379  0.150861
  -16.033  -13.2018  0.515216
 -16.1254  -13.1919  0.397307
 -17.6938  -13.7823 -0.505116
  -14.177   -13.457  0.355337
 -15.0222  -13.6359 -0.245418
 -18.5084  -13.6615  -1.88106
 -14.1049  -13.6122 -0.212831
 -14.3476  -13.4908 -0.431703
 -13.8921   -13.776 -0.245662
 -13.5123   -14.024 -0.140618
  -15.083  -13.5852  -1.03292
 -13.8211  -13.7969 -0.459987
 -17.9907  -13.7497  -2.57077
 -13.7682  -13.7933 -0.748366
 -13.7793  -13.7849 -0.988033
 -14.1756  -13.7507  -1.58659
 -14.7082  -13.6493  -1.91305
 -15.1089  -13.4586  -2.51198
 -14.3987  -13.6976  -2.10589
 -13.8152  -13.6058  -2.10057
 -14.3835  -13.5471  -2.51469
  -13.868  -13.5597  -2.25764
 -12.9736  -14.3945  -2.83248
 -12.4865  -14.4953  -2.96169
 -18.1378  -13.6997  0.017522
 -15.9565  -13.2199  0.487001
 -15.5061  -13.2737  0.318498
 -17.7272  -13.7601 -0.302559
 -14.5668  -13.3867  0.552575
 -14.4834  -13.4146  0.367862
 -18.1112  -13.7141 -0.877041
 -16.0717  -13.6944 -0.198042
 -15.0519  -13.6472 -0.079015
 -14.4269  -13.4095  -0.25798
 -14.1917  -13.6325 -0.152755
 -18.2989  -13.6892  -2.47466
 -18.3404  -13.6845  -2.51668
 -15.0385  -13.6059  -1.02958
 -14.3652  -13.6302 -0.740879
 -18.2254   -13.711  -2.51792
 -13.8537  -13.7862 -0.561483
 -13.8751  -13.7776  -0.84013
 -15.6868  -13.5906  -1.87701
 -15.6408  -13.6461   -1.8731
 -13.7838  -13.7864 -0.963045
 -13.7948  -13.7676  -1.03559
 -13.6489  -13.6656  -1.29678
 -14.9006   -13.485  -2.04069
 -16.2398   -13.971  -2.90495
 -13.9575  -13.5438  -2.23916
 -12.9096  -14.3958  -1.89734
 -14.3777   -13.443  -3.07882
 -12.8377  -14.4059  -3.02114
 -19.0183  -13.5553   1.41666
 -16.7325  -13.0968   0.46917
 -17.8408  -13.7397  0.397982
 -16.5303  -13.1394  0.429091
 -17.9224  -13.7232  0.267887
 -16.1355  -13.1923  0.470221
 -15.2767  -13.3104  0.517098
 -15.4333  -13.2906  0.337914
 -14.1503  -13.4613  0.339202
 -13.8541   -13.769 -0.505374
 -13.8201  -13.7665  -1.00849
 -13.3157  -14.0345 -0.867193
 -13.2092  -14.0623  -1.20467
 -14.2369  -13.7279  -1.85131
 -13.9314  -13.5772  -2.13874
   -18.98   -13.605   1.35713
 -17.3729  -13.8084 -0.309141
 -14.8897  -13.5652  -1.83047
 -13.3587  -14.0479  -1.03172
 -14.7253  -13.6723   -1.9711
 -13.9197  -13.5544  -2.15349
 -13.3797  -13.8671  -2.41871
 -18.0329  -13.7027  0.263308
 -15.5877  -13.2955  0.310258
 -13.9717   -13.481  0.418842
 -13.5868  -13.9517  -1.28775
 -14.0814  -13.5633  -2.24709
 -18.9532  -13.4383   1.58321
 -14.4937  -13.6217 -0.875253
 -14.8145   -13.539  -2.18887
 -14.3921  -13.7587   -0.7868
 -13.4224  -14.0329 -0.367798
 -13.4004  -13.8357  -2.05037
 -15.0221  -13.4966  -1.63433
 -14.0522  -13.7623 -0.346813
  -14.205  -13.8431  -1.38521
 -14.0674  -11.4929   1.67413
 -15.0196  -11.5865   1.27189
 -14.1276  -11.7006   1.14221
 -14.1662  -11.6967   1.13974
 -14.8916  -11.6009   1.15218
 -18.9496  -13.4072   1.61166
 -19.0069  -13.4151   1.60466
 -18.9383  -13.6062  0.896845
 -13.9597   -13.484  0.577997
 -16.3319  -13.1731  0.501707
 -14.6335  -13.3947  0.516903
 -14.7574  -13.3763  0.506404
 -14.1064   -13.461   0.50781
 -17.9466  -13.7336  0.478775
 -14.0482  -13.4661  0.505129
 -14.5754  -13.4046   0.48999
 -13.9325  -13.4869  0.501883
 -17.8194  -13.7477   0.46065
 -13.7554   -13.514  0.496763
 -17.8785  -13.7493  0.443511
 -16.3348  -13.1652  0.403821
 -16.3172  -13.1649  0.383556
 -14.9887  -13.3478  0.375514
  -13.754  -13.5071   0.40029
 -17.7463  -13.7494  0.318122
 -16.6267  -13.4169  0.051193
 -17.6665  -13.7654 -0.023797
 -15.0744  -13.6321 -0.052455
 -16.3939  -13.4775 -0.131896
 -17.3786  -13.8038 -0.337347
 -14.0417  -13.7597 -0.159838
 -17.1709  -13.8294 -0.360579
 -13.7633  -13.8164 -0.179317
 -13.7796  -13.7995 -0.192092
 -13.7306  -13.8049 -0.194978
 -13.9497  -13.7723 -0.208946
 -14.1419  -13.6155 -0.224624
 -13.8894  -13.7725 -0.237633
 -14.3993  -13.3979 -0.280243
 -14.9383  -13.6523 -0.454645
 -14.3432  -13.5114  -0.45745
 -13.5582   -14.019 -0.424764
 -14.9833  -13.6436 -0.573453
 -18.1847  -13.7128 -0.975353
 -16.0654  -13.6237 -0.818144
  -16.503  -13.2827 -0.871909
 -18.4987  -13.6628  -1.07579
 -13.9542   -13.769 -0.727803
 -13.7814  -13.7913 -0.728178
 -13.8715  -13.7772 -0.746429
 -13.8864  -13.7691 -0.759463
 -18.5151   -13.669  -1.27602
 -18.2745  -13.6886    -1.311
 -14.9423  -13.6189   -1.0598
 -16.9969  -13.8661   -1.3301
 -16.7946  -13.8793  -1.31956
 -14.5956  -13.7024  -1.10181
 -18.3176  -13.6814  -1.56358
 -14.6291  -13.7312  -1.24047
 -17.3462  -13.8337   -1.6407
 -14.4741  -13.6892  -1.28474
 -18.8418  -13.5926  -1.88119
 -16.6057  -13.9145  -1.60675
 -14.4861  -13.6841  -1.29485
 -15.5948  -13.7282  -1.59516
 -17.2591  -13.8417  -1.85307
 -14.0515  -13.7663  -1.40417
 -14.4915  -13.7041  -1.68083
 -14.5407  -13.6947  -1.69025
 -14.2493  -13.7345  -1.68473
 -14.3457  -13.7185  -1.70552
 -16.9534  -13.8835  -2.17216
 -18.4885  -13.6439   -2.4259
 -18.1358  -13.7068  -2.51189
 -18.1568  -13.7071  -2.58746
 -14.6316  -13.6774  -1.95083
 -14.8048   -13.654  -2.02198
 -15.1071  -13.4636  -2.09223
 -14.2314  -13.7253  -1.97252
 -18.5902   -13.635  -2.78928
 -18.1762  -13.7203  -2.77447
 -12.7575  -14.4136  -1.88117
 -14.8491  -13.4495  -2.15749
 -14.9198  -13.4365  -2.24837
 -17.6486  -13.8242  -2.91375
 -13.7664  -13.5932  -2.09252
 -13.9617  -13.5535  -2.15939
 -18.5933  -13.6558  -3.19178
 -12.7571     -14.4  -2.10794
 -18.6249  -13.6298  -3.20752
 -13.8223  -13.5597  -2.18381
 -16.6147  -13.9226  -2.85976
 -13.7913  -13.5699  -2.20221
 -13.8672  -13.5638  -2.25622
 -13.7387  -13.5846  -2.24107
 -16.1395  -13.9768  -2.87066
 -15.0537  -13.4724  -2.55698
 -14.8932  -13.4902  -2.55432
 -16.2603  -13.9669  -2.96006
 -14.4279  -13.5481  -2.54988
 -14.2046  -13.5765  -2.55118
  -18.192  -13.7152  -3.52241
 -12.8524  -14.4046  -2.44769
 -12.5219  -14.4582  -2.40607
 -17.7079  -13.8025  -3.51144
 -12.6661  -14.4235  -2.49764
 -17.8198  -13.7674  -3.74688
 -16.5006  -13.9267  -3.47367
   -17.47  -13.8065   -3.7796
 -16.2808  -13.9601  -3.53184
 -16.2343  -13.9786  -3.54935
 -15.9941   -14.016  -3.51451
 -15.9044  -13.9978  -3.49158
 -15.9829  -13.9951  -3.52018
 -12.9713  -14.3967  -2.86144
 -12.4525  -14.4612  -2.89509
 -13.0622  -14.3646  -3.12055
 -12.3311  -14.4694  -3.01014
 -12.6284  -14.4303   -3.1137
 -12.6153    -14.43  -3.12409
 -12.8696  -14.3904  -3.19472
 -13.8872  -13.6998  -3.30081
 -12.9535  -14.4051  -3.25069
 -12.3259  -14.4755  -3.28775
 -12.2937  -14.4735  -3.31837
 -14.1391  -11.7013   1.24972
 -18.9669  -13.3158    1.6149
  -14.619  -11.6329   1.07214
 -19.0092  -13.5751   1.40386
 -18.7713  -13.5724   0.90919
 -18.7977  -13.6007  0.890927
 -16.1011   -13.195  0.497107
 -14.1723   -13.454  0.517093
 -18.6127  -13.6356    0.4558
 -16.3057  -13.1761   0.41288
 -15.9293  -13.2253  0.333513
 -16.1226  -13.1968   0.31699
 -17.9149  -13.7226   0.26237
 -15.3676  -13.4603  0.283084
 -18.0409  -13.7113 -0.010519
 -16.4115  -13.4789 -0.027346
 -13.8601  -13.7892 -0.053888
 -17.6975  -13.7787 -0.270486
 -17.2961  -13.8164 -0.252794
 -14.1052  -13.6514 -0.157793
 -15.0277  -13.6386 -0.246628
 -14.3936  -13.4315 -0.227997
 -17.7659  -13.7599 -0.525428
 -17.3022  -13.8391 -0.517536
 -14.2519  -13.5873 -0.294492
 -18.5805  -13.6359 -0.618793
 -13.7752  -13.7984 -0.450598
  -13.819  -13.7851 -0.569599
 -15.9079  -13.7083 -0.771142
 -18.4247  -13.6768  -1.04085
 -15.5419  -13.7596 -0.809325
 -13.3386  -14.0257 -0.613036
 -17.6709  -13.7696   -1.0357
 -13.5695  -14.0223 -0.648889
 -14.3064  -13.6969 -0.730931
 -13.2057  -14.0617 -0.797324
 -13.2467  -14.0675 -0.853605
 -13.3082  -14.0472   -0.8581
 -14.9812   -13.614  -1.05113
 -16.8197  -13.8779  -1.29458
 -13.9557  -13.7648  -0.96293
 -16.8593  -13.8616  -1.32123
 -17.5422  -13.7755  -1.48706
  -13.916  -13.7364  -1.05112
 -13.7502   -13.769  -1.04441
 -18.8004   -13.606  -1.85725
 -13.3239  -14.0075  -1.42733
 -14.3682  -13.7058  -1.75254
 -13.4713  -14.0197  -1.74343
 -15.1448  -13.4912  -2.02827
 -16.8426  -13.8982  -2.40782
 -13.3821  -14.0082  -1.79889
 -12.8982  -14.4005  -1.86782
 -15.1263  -13.4137  -2.26038
 -13.8919  -13.6063  -2.07453
 -17.2979  -13.8343  -2.88559
 -13.9704  -13.5584  -2.22293
 -16.2837  -13.9779  -2.89952
 -16.1258  -13.9972  -2.89228
 -16.2445  -13.9556  -2.91542
 -14.5529  -13.5386  -2.56389
 -16.4158  -13.9448  -3.52132
 -14.3295  -13.5187  -2.98121
 -12.9178  -14.4053  -2.87006
 -13.0363  -14.3717  -2.91671
 -12.7346  -14.4379  -2.88906
 -12.5757  -14.4426  -2.87026
 -12.1379  -14.5107  -3.22873
 -14.1979  -11.6901   1.29424
 -14.9543  -11.5928  0.916116
 -13.8153  -13.4947  0.352168
 -14.9401  -13.6483 -0.165362
 -14.2586   -13.492 -0.279633
 -14.3615  -13.4725 -0.391066
  -17.451   -13.813 -0.660512
 -14.9403  -13.6366 -0.992333
 -14.9108  -13.6317  -1.05264
 -13.7764  -13.7807 -0.990643
 -14.6618  -13.6935  -1.25453
 -13.5701  -13.7249  -1.26451
 -15.6936  -13.5971  -1.64667
 -16.6311  -13.8666  -2.37713
 -15.0244  -13.4639  -2.08363
 -14.9186  -13.4946  -2.08194
 -15.0563  -13.4203  -2.18894
 -13.9205  -13.6218  -2.02843
 -15.4696   -13.372  -2.78854
 -13.2594  -14.3456  -2.66451
 -13.2161  -14.3483  -2.70854
 -13.2676  -13.6142  -2.91268
 -12.5981  -14.4653  -3.20896
 -12.8728  -14.4062  -3.28564
 -12.1484  -14.4888  -3.31393
 -14.5401  -13.4049  0.558651
 -16.6384  -13.1223  0.458713
 -18.4995  -13.6195  0.430931
 -14.3039  -13.4328   0.33551
 -16.6404  -13.2947  0.184355
 -14.8749  -13.6267 -0.136309
 -14.3165  -13.4579 -0.276399
  -16.007  -13.6979 -0.422105
 -17.8026  -13.7665  -1.05846
 -15.6682  -13.7386   -1.0383
 -15.6661  -13.7068  -1.20298
 -14.6448  -13.7345  -1.23377
 -14.3653  -13.6963  -1.35567
 -13.6591  -13.6357  -1.29282
  -14.592  -13.7204  -1.69336
 -16.3101  -14.0002  -3.50976
 -14.3861  -13.3794  -3.20032
 -13.4177  -14.3225   -3.3189
 -13.7054  -13.5279   0.39171
 -18.2509  -13.6394 -0.017126
 -17.4889  -13.7975 -0.293084
  -15.651  -13.7144  -0.59359
 -13.8615  -13.7752  -0.50515
 -17.6658  -13.7531  -1.00911
 -14.6814  -13.6912  -1.66726
  -18.069  -13.7111  -2.23153
 -14.2375  -13.7314  -1.61447
 -14.2456  -13.7248  -1.83656
 -13.9281  -13.5951  -2.14149
 -15.1744  -13.4715  -2.52035
 -17.9936  -13.7661  -3.25503
 -14.3044  -13.5462  -2.51648
 -12.5991  -14.4516  -2.45082
 -15.0103  -13.2912  -2.78904
  -16.341  -13.9387  -3.51852
 -13.5261  -14.3087  -3.28146
 -13.7588  -13.7024  -3.22943
 -15.9166  -13.2326  0.444738
 -16.4731  -13.4806 -0.513209
 -17.6412  -13.8054  -0.89042
 -14.8085  -13.7427  -1.38367
  -13.977  -13.7865  -1.40822
 -13.2876  -14.0454  -1.34727
 -19.0058    -13.66   1.30447
 -16.2251  -13.1796  0.315165
 -17.6167  -13.7607 -0.021474
 -14.2666  -13.5423 -0.188598
 -16.5344  -13.4463 -0.587832
 -14.8989  -13.6629 -0.562323
 -13.9851  -13.8357 -0.785144
 -14.4377  -13.8311  -1.43745
 -13.3857  -14.0468  -1.46051
 -14.5411  -13.6569  -2.02177
 -13.0975  -13.8786  -2.03353
  -12.883  -14.3945  -2.90534
 -16.8771  -13.4343  0.321965
  -13.863  -13.6373  -1.64052
 -17.5839  -13.7902 -0.791747
 -13.8866  -13.7489  -1.24926
 -13.8291   -13.602  -2.27987
 -14.0926  -13.8097 -0.471862
 -12.5246  -14.4427  -3.19952
 -14.3114  -13.5601  -2.55956
   -17.46  -13.8295  -3.24519
 -16.2862  -13.9909  -2.90336
 -16.3377   -13.961  -2.89285
 -13.8145  -13.5557  -2.24174
  -17.227   -13.846  -2.20338
 -14.2596  -13.7399  -1.66216
 -18.0398  -13.7224   -2.1481
 -18.1937   -13.692   -1.8815
 -18.4644   -13.577  -1.56034
 -15.6757  -13.6837   -1.0995
 -18.4229  -13.6586  -1.26832
 -13.5947  -14.0207 -0.634138
 -17.6744  -13.7927 -0.655385
 -14.3304  -13.4575  -0.24713
 -16.3877  -13.4683 -0.116029
   -18.49  -13.6506 -0.041537
 -18.5544  -13.6493  0.162087
 -16.6257  -13.1293  0.347471
 -14.3365  -13.4352  0.375548
 -16.5598  -13.1328  0.382043
 -15.6906  -13.2514  0.386264
  -13.724    -13.52  0.409269
    -16.1  -13.1973  0.500164
  -15.933  -13.2216   0.50298
 -14.0128  -11.7174    1.1563
 -15.0163  -11.5866   1.27188
 -12.8406  -14.4077  -2.94386
 -18.0487  -13.7256  -2.78651
  -13.694  -13.6005  -1.97756
 -16.8972  -13.8762  -2.52265
 -16.9039  -13.9113  -2.51316
 -13.3376  -14.0448  -1.33809
 -18.2875  -13.6807  -1.89419
 -17.4525  -13.8352 -0.662368
 -14.0899  -13.6413 -0.177708
 -14.7638  -13.6541  -0.19072
 -17.7622  -13.7758  0.163765
 -14.4454  -11.6624  0.934895
 -18.9881  -13.5697   1.40439
 -12.1502  -14.5078  -3.27387
  -12.681  -14.4324  -2.90727
 -16.3802  -13.9618  -3.48556
 -13.2385  -14.3571  -2.71537
 -16.5953  -13.9304  -2.88502
 -13.3052  -14.0566  -1.23402
 -13.2565  -14.0652  -1.22019
 -14.3311  -13.6947 -0.696242
 -16.3869  -13.6484 -0.376689
 -14.0392  -13.7138 -0.142589
 -15.0309  -13.6485 -0.025498
 -14.4927  -13.4082  0.317654
 -16.4675  -13.1542  0.332976
  -16.051  -13.2305  0.361287
 -13.1895  -13.9649  -2.35869
 -13.2102  -13.8345  -1.91904
 -14.3205  -13.4741 -0.235971
 -14.7082  -13.3898  0.334893
 -13.4557  -14.0159 -0.383966
 -17.4903  -13.7805 -0.292411
 -15.2939  -13.5124   0.08627
 -13.9513  -13.4778  0.353524
  -14.407  -13.7528  -1.41609
 -14.8316  -13.5831 -0.910491
 -14.1159   -13.593 -0.217859
 -13.8723  -13.8206  -0.10863
 -14.6461  -13.6944 -0.632697
 -14.1399  -13.7734 -0.792864
 -14.9534  -11.5803    1.4987
 -13.2881  -14.3605   -2.0151
 -18.3159  -13.7042  -3.21217
 -16.5376  -13.9348  -3.21608
 -18.5839  -13.6673  -2.76126
 -17.4191  -13.8582  -2.86543
 -16.8536  -13.8848   -2.8804
 -16.4753  -13.9476  -2.90957
  -16.785  -13.8942  -2.86096
 -16.3335   -13.978  -2.89779
 -14.7742  -13.5093  -2.56162
  -14.305  -13.5687  -2.56171
 -17.4284  -13.8203  -2.53308
   -18.21  -13.7186  -2.42667
 -12.9021  -14.4019  -2.93266
  -12.451  -14.4593  -2.89305
 -12.4435  -14.4579  -2.72818
 -14.6457  -13.6732   -1.9748
  -18.486  -13.6514  -1.58053
 -12.7267  -14.4103  -2.26716
 -17.6507  -13.7764  -1.57844
 -14.3539  -13.7177  -1.85303
  -17.032  -13.8803  -1.61954
 -14.5622  -13.6969   -1.7236
 -18.4156  -13.6556  -1.26142
 -17.6986  -13.7646  -1.29255
 -18.4261  -13.6573  -1.00448
 -14.0417  -13.7653  -1.40593
 -15.0144  -13.6012   -1.0229
 -15.0373  -13.6314  -1.00172
 -15.8381  -13.7346 -0.812812
 -18.0835  -13.7015 -0.010511
 -18.6062  -13.5966  0.115567
  -18.624  -13.6207  0.159854
 -14.3706  -13.4827 -0.452048
 -17.8585  -13.7459  0.303951
 -18.5056  -13.6335  0.466619
 -13.7282  -13.7995 -0.458791
 -16.3396  -13.1758  0.425026
 -14.4001   -13.433  0.421757
 -14.4415  -11.6675   0.92082
 -13.5122  -14.3333  -3.48461
 -18.0519   -13.717  -2.52918
 -17.9668  -13.7371  -2.52127
 -14.2541  -13.5693  -2.55485
 -18.1996  -13.7142  -2.40796
  -13.805  -13.5551  -2.23958
 -14.4165  -13.6803  -1.89577
 -17.2435  -13.8384  -1.28978
  -14.118  -13.7833  -1.40838
 -15.1069  -13.6327 -0.695258
 -17.6935  -13.7722  -0.26699
 -15.5145   -13.747 -0.456733
  -16.416  -13.4709 -0.027073
 -14.3177  -13.5152 -0.418886
 -14.8572   -13.667 -0.177479
 -15.9224  -13.2215  0.487898
 -13.7118  -13.5088  0.395137
 -15.4452  -13.3652  -2.81878
 -14.8433  -13.4594  -2.23528
 -13.7341   -13.612  -2.02153
 -15.3064  -13.6337  -1.38412
 -18.0988  -13.7024  0.151052
 -16.6813  -13.3146  0.186066
 -17.2596  -13.8198  -2.49625
 -14.4328  -13.4197  -0.36964
 -13.8478  -13.7879 -0.554739
  -14.922  -13.6761 -0.067808
  -18.871  -13.5545   1.43854
 -13.9115   -13.538  -1.30707
 -14.4951  -13.7143  -1.27979
 -16.6024  -13.3948   0.07561
 -18.9359  -13.5808   1.32387
 -13.9397  -13.5254  0.300751
 -13.7127  -13.7024   -2.5428
 -14.1281  -13.6718  -1.36542
 -13.5683  -13.9315   -1.3243
 -15.3943   -13.373  0.292254
 -14.1085   -13.678  -1.20836
 -16.2811  -13.4574 -0.973336
 -17.0522  -13.8724  -3.71242
 -18.0008  -13.7324  -2.94137
  -18.539  -13.6708   -1.8894
 -13.5244  -14.3297  -3.48124
 -14.9545  -13.4707  -2.08114
 -16.6553  -13.9092  -1.61541
 -12.2792  -14.4751  -3.51587
 -14.7855  -13.6561  -1.67681
 -14.5182  -13.6976  -1.71092
 -18.6326  -13.6281  0.162493
  -14.582  -13.7167  -1.27835
 -15.6131  -13.7398 -0.628373
 -18.6068  -13.6296  0.875372
  -12.659  -14.4297  -2.12306
 -15.5426  -13.7624 -0.390834
 -16.2451  -13.1779  0.344688
 -14.3523  -13.6374 -0.736877
 -13.8173  -13.7779 -0.976707
 -15.9159  -13.2263  0.337896
 -15.7286  -13.2513  0.343957
 -14.7595  -13.6314 -0.048226
 -14.5938  -11.6358  0.924178
 -13.2199  -14.0708 -0.953604
  -14.985   -13.351  0.369018
 -13.7882  -13.5029   0.34473
  -13.738  -13.5051  0.386311
 -18.3002  -13.7113  -3.76822
  -17.037  -13.8641  -3.22097
 -15.1804   -13.259  -2.94346
 -15.2412  -13.2407   -2.8214
 -16.7913  -13.8867  -1.98388
  -13.964  -13.5325  -2.28298
 -16.7467  -13.9044  -1.31802
 -12.5234   -14.443  -3.19664
 -16.4607  -13.2905 -0.853619
 -12.8852  -14.4122  -2.91425
 -17.3905  -13.8127 -0.677135
   -18.06  -13.7338  0.009277
 -17.1954  -13.8312 -0.356175
 -17.1971  -13.8301 -0.328341
 -15.6431  -13.7338 -0.636865
 -17.9276  -13.7219  0.467509
 -14.3004  -13.7154 -0.764737
 -18.9728   -13.415   1.58015
 -13.8525  -13.7816  -0.83867
 -14.9381  -11.5993   1.19404
 -14.6722  -11.6255   1.15135
 -14.4139  -13.7208  -1.71459
 -15.5863  -13.7225  -1.09816
 -14.4921  -13.6687  -1.32345
 -16.6282   -13.127  0.342695
 -12.6839  -14.4333  -2.13829
  -13.413  -14.0219  -1.42008
 -16.0157  -13.2178   0.52664
 -14.9574  -13.6502 -0.183256
 -14.5642  -11.6493   1.05112
 -13.7892  -13.8018 -0.084784
  -13.833  -13.7908 -0.043417
 -15.0839  -13.4177  -1.93824
  -17.363  -13.7811 -0.612456
 -15.0591  -13.6282   -1.0783
  -15.406  -13.2864  0.517959
 -14.0854  -13.6424 -0.226481
 -14.6216  -11.6367   1.10462
 -13.7717  -13.5062  0.408613
 -15.0475  -13.3082  -2.99575
 -14.3175  -13.7486 -0.776426
 -13.9026  -13.7803 -0.109721
  -14.386  -13.4677  -2.98671
 -16.3434  -13.6293 -0.436901
 -14.4685  -13.6171 -0.920418
 -15.0491  -13.4606  -1.94303
 -14.1406  -13.6879  -1.29068
 -14.4339  -13.5974 -0.464381
 -16.9576  -13.8759  -1.89355
 -18.8209  -13.6028  0.910885
  -19.045  -13.5427   1.38004
 -14.2488  -13.5818  -2.52141
 -14.0052  -13.6095  -2.52208
 -16.5189   -13.138  0.372616
 -14.7136  -13.6666  -1.61228
  -15.608  -13.7704 -0.790979
  -14.373  -13.7171  -1.69158
 -15.9279  -13.2297  0.347685
 -15.0809  -13.6309  -0.58116
 -14.0321  -13.7449  -1.40302
 -14.3622   -13.631 -0.737084
 -14.3531  -13.4707 -0.410646
 -13.9381  -13.7499  -1.04133
  -13.995  -13.7662 -0.719169
 -13.9399  -13.4842  0.376361
 -15.0162  -13.4318   -2.2624
 -18.1001  -13.7089  0.048767
 -12.9367  -14.3912  -3.21436
 -13.5472  -14.0111 -0.168504
 -15.5535  -13.5723  -2.00341
 -17.9121  -13.7226  0.451253
 -16.6129   -13.128   0.29916
 -13.7949   -13.797 -0.182128
 -14.1412   -13.454  0.531239
 -19.0821  -13.2924    1.5867
 -16.8594  -13.8802 -0.154583
 -15.0015  -13.6015 -0.994786
 -15.8343  -13.4619  -2.12572
 -13.7398   -13.695  -3.14203
 -16.2029  -13.4862 -0.786111
 -18.8688  -13.4743   1.47312
 -14.2928  -13.7263   -1.9016
 -14.2565  -13.6855  -1.81139
 -14.3805  -13.8215  -1.34193
 -14.0332   -13.563  -2.14388
 -14.2734  -13.7319  -1.48597
 -13.5141  -13.8146   -2.1163
 -14.7704  -13.6548  -1.59301
 -19.0752  -13.5391   1.12088
 -16.3018  -13.9559  -3.38249
 -16.4518  -13.2895  -0.84693
 -15.5216  -13.7519 -0.538624
 -15.1542  -13.6178 -0.716627
 -15.0795  -13.6289 -0.577696
 -14.8951  -13.6571 -0.969255
  -14.487  -13.7007  -1.69046
 -13.9197  -13.5704  -2.18551
  -13.918  -13.7765 -0.573442
 -13.2265   -14.061 -0.946732
 -19.0516  -13.5416  0.972932
 -16.7823  -13.8836  -1.98688
 -14.8943  -13.4712  -2.05556
 -15.0828  -13.6333 -0.191791
  -13.808   -13.799 -0.101637
 -16.6782  -13.8949  -1.27918
 -16.5055  -13.1428  0.376213
 -14.4768  -13.6758  -1.27333
 -14.3649  -13.7381  -1.31086
 -13.8001  -13.8007 -0.175815
  -19.073  -13.5302   1.26185
 -14.2473  -13.5633  -2.55823
 -14.6848  -13.6744 -0.976867
 -17.9724  -13.7228 -0.046538
 -14.4833  -13.6908  -1.12757
 -13.7929  -13.5777   -2.2489
 -13.4446   -14.014 -0.568628
 -14.3726  -13.7934 -0.660704
  -14.337  -13.7843  -0.41095
 -18.5071  -13.6533  -1.63307
 -17.6558  -13.8033  -3.16253
 -16.4598  -13.2995 -0.865744
 -16.1586  -13.1895  0.392304
 -15.0807  -13.5947  -1.03748
 -14.8209  -13.6573  -2.03099
 -14.3271  -13.4772 -0.387007
 -14.1871  -13.7422  -1.58968
  -13.926  -13.7467   -1.0415
 -13.7461  -13.7983  -0.72086
  -13.746  -13.8046 -0.199523
 -19.0422  -13.5563  0.991761
 -17.8206  -13.7601  -1.04093
 -17.4145  -13.8225  -3.42549
 -15.0742  -13.6334 -0.630651
 -14.9739  -13.6436 -0.396765
 -14.3095   -13.465 -0.338115
 -13.8102   -13.791 -0.046698
  -17.822  -13.7756  -3.67864
 -16.3497  -13.9554  -2.76484
 -19.0333  -13.5615  0.852349
 -17.9605  -13.7032  0.360003
 -15.2081  -13.5923  -1.53033
  -14.116  -13.7453  -1.57875
 -12.9136  -14.3873  -2.85494
  -13.811  -13.5756  -2.14619
 -14.8184  -13.6374 -0.098665
 -13.4688  -14.0235 -0.502848
 -14.4403  -13.5268 -0.650924
 -18.1644  -13.6808  0.285977
 -17.6467  -13.7729  0.200542
 -17.6494   -13.793  -3.09472
  -14.898  -13.6547 -0.197404
 -14.9727  -13.6404 -0.574878
 -14.3259  -13.4514 -0.347285
 -14.2923  -13.5186 -0.402937
  -13.935  -13.4867  0.391745
  -14.759  -13.6753  -1.51337
 -14.8099  -13.6556   -1.6891
 -13.9308   -13.787 -0.445151
 -13.7865  -13.7941 -0.213473
   -13.91  -13.7767 -0.577282
 -14.1579  -13.7468  -1.57951
 -19.0617  -13.5559   1.20091
 -18.1273  -13.6891  0.296945
 -16.1348  -13.1925  0.413453
 -16.4247   -13.393 -0.862406
 -16.3942  -13.3944 -0.951529
 -14.9783  -13.6459 -0.097432
 -16.3044  -13.9591  -2.97912
   -14.42  -13.7637 -0.977341
 -13.9494  -13.7691 -0.171236
 -13.8584   -13.776 -0.253271
 -17.5765  -13.7841  0.070495
  -18.256  -13.7087  -2.20717
 -14.9499  -13.6488 -0.484527
 -14.9814  -13.6441 -0.622292
 -15.0628   -13.623 -0.974786
 -13.3209  -14.0483 -0.805123
 -13.2544  -14.0509 -0.813264
 -12.8613  -14.4025  -3.18555
 -18.0454  -13.6924  0.234063
 -14.8757  -13.4933   -1.8811
 -12.8723  -14.3964   -1.6288
 -12.1544  -14.4956  -3.29379
 -14.5864  -13.6266 -0.865102
 -14.4617  -13.6754 -0.984607
 -16.1672  -13.1869  0.492897
 -18.3139  -13.6809  -1.50669
 -15.0562  -13.6387  -0.20251
 -14.8929  -13.6523 -0.196865
 -15.0921  -13.6392 -0.450504
 -16.5802  -13.9308  -3.51481
 -14.7004  -13.6532   -1.9118
 -14.3861  -13.7189  -1.69561
 -16.1108  -13.9849  -3.54959
 -14.3111  -13.7237    -1.683
 -14.2184  -13.7357  -1.62477
   -18.12  -13.6868  0.299979
 -16.0635  -13.2039  0.531646
 -14.2265   -13.453  0.495891
  -16.852  -13.8827  -2.89412
 -13.9456  -13.7679 -0.236055
 -13.8313  -13.7831 -0.239345
 -16.3078  -13.9586  -2.97702
 -13.7745  -13.7917  -0.75803
 -13.3385  -14.0461  -0.78995
 -13.8258  -13.5643  -2.20663
 -16.0915  -13.2071  0.544856
 -16.5541  -13.9358  -2.91516
  -14.447   -13.615 -0.860265
 -16.3248  -13.9636  -2.80824
 -13.7893  -13.7978 -0.221223
 -13.7769   -13.794 -0.241218
 -13.7718  -13.7944 -0.509023
 -14.9386  -13.4409  -2.17829
 -16.1575  -13.1926  0.335942
 -18.2376  -13.7106  -2.45637
 -13.9998  -13.4739  0.540413
 -13.8086  -13.5609  -2.24259
 -13.1769  -14.0513  -1.16642
 -14.1741  -11.3198   1.67906
 -15.7595  -13.7533 -0.371973
 -14.4245  -13.6842  -1.31809
 -14.0407  -13.7588  -1.36316
 -14.3648   -13.718  -1.76873
 -14.0212  -13.7389 -0.139746
 -14.1744  -13.4602  0.357898
 -16.4587  -13.3636 -0.942562
 -13.7647   -13.505  0.391225
 -14.8957  -13.6584 -0.197154
 -14.0847  -13.6509 -0.193306
 -13.9078  -13.7772 -0.195363
 -13.8561  -13.7796 -0.244781
 -13.7334  -13.8018 -0.199478
 -17.0836  -13.8562  -2.40856
 -13.8204   -13.799 -0.461723
 -13.9102  -13.7741 -0.716962
 -17.9832  -13.7386  -3.79322
 -14.3139  -13.7214    -1.684
 -14.1661   -13.749  -1.58347
 -14.1856  -13.7385   -1.6163
 -13.2667  -14.0493  -0.87006
 -14.3758  -13.6914  -2.09201
  -14.384   -13.556   -2.5156
 -12.8938  -14.3944  -1.92445
 -13.8351  -13.7214  -3.23846
 -16.2077  -13.1785  0.342238
 -15.1177  -13.3322  0.371876
  -14.817  -13.3772   0.33744
  -14.227  -13.4489  0.495363
 -15.5205    -13.74 -0.452388
 -14.7899  -13.6672 -0.181547
 -15.1261  -13.6255 -0.453837
  -15.734  -13.7488 -0.787591
 -15.5601  -13.7744 -0.788121
  -14.134   -13.639 -0.282805
 -15.0508  -13.6081  -1.03961
 -13.8808  -13.7885 -0.333681
 -14.3685  -13.6342  -0.71997
 -17.1259  -13.8495  -2.40903
 -14.5298  -13.6893  -1.85511
 -15.6605  -13.6179  -2.80154
 -13.4886   -14.027  -1.75319
 -13.8756   -13.568  -2.18476
 -13.8941  -13.5883  -2.23163
 -13.9425  -13.5733  -2.27359
 -12.9127  -14.3789  -1.92566
 -16.1564  -13.7012  -0.11842
 -13.8091  -13.4898  0.382258
 -15.0781  -13.6286 -0.378243
 -17.3483  -13.8216  -2.47808
 -13.8769  -13.7742 -0.712783
 -16.3119  -13.9644  -2.82812
 -13.5545  -14.0095 -0.928642
 -15.0184  -13.4269  -2.26238
 -19.0352  -13.5845   1.42871
 -13.8011  -13.8023 -0.700796
 -13.1909  -14.0478  -1.18924
 -15.7695  -13.2438  0.322858
 -16.6213  -13.4081 -0.667051
 -14.4583  -13.4227   0.38593
 -14.0172  -13.4611  0.529976
  -13.977  -13.4811   0.52187
 -14.0038  -13.7592  -1.06974
 -13.4594  -14.0139 -0.853061
 -12.8545   -14.389  -1.97429
 -13.8025  -13.7366  -3.25493
 -14.3542  -13.7829 -0.935082
 -14.4777  -13.7395  -1.28817
  -14.849  -13.5434   -1.8702
 -14.5184  -13.6899  -1.91468
 -13.1085  -14.0704  -1.23196
 -13.4846   -14.019 -0.952936
