-24.6438 -17.7113 20.6256
-24.4715 -17.4467 20.5853
-24.2639 -17.2849 20.5649
-24.1238 -16.8883 20.4895
-23.9492 -16.6333 20.4511
-23.77 -16.3973 20.4163
-23.5763 -16.1782 20.385
-23.3571 -16.0642 20.3736
-23.1615 -15.8952 20.3514
-22.9423 -15.7811 20.34
-22.7137 -15.7053 20.3358
-22.4922 -15.6008 20.3262
-22.2427 -15.611 20.3383
-21.9932 -15.6212 20.3504
-21.7902 -15.4403 20.3263
-21.5807 -15.3287 20.315
-21.3428 -15.2911 20.318
-21.1119 -15.2248 20.3156
-20.8434 -15.2709 20.3349
-20.6362 -15.1497 20.3217
-20.3724 -15.1766 20.3374
-20.1485 -15.0817 20.3296
-19.9129 -15.0346 20.3308
-19.6727 -15.0065 20.3357
-19.4632 -14.8949 20.3243
-19.204 -14.9027 20.3363
-18.9685 -14.8556 20.3376
-18.7566 -14.7535 20.328
-18.549 -14.5916 20.3076
-18.3204 -14.5158 20.3034
-18.0872 -14.4591 20.3028
-17.8936 -14.24 20.2716
-17.7399 -13.899 20.2169
-17.5323 -13.7372 20.1965
-17.3108 -13.6327 20.1869
-17.0054 -13.8722 20.2423
-16.7629 -13.8538 20.2489
-16.5692 -13.6346 20.2177
-16.3547 -13.5015 20.2027
-16.1824 -13.2369 20.1624
-16.019 -12.8935 20.1077
-15.9608 -12.203 19.9764
-15.8839 -11.5466 19.8622
-15.7838 -10.9858 19.766
-15.5692 -10.8527 19.751
-15.4225 -10.483 19.6909
-15.2056 -10.3594 19.6777
-14.9138 -10.501 19.715
-14.655 -10.5494 19.7343
-14.4101 -10.5405 19.7427
-14.1909 -10.4265 19.7313
-13.9763 -10.2934 19.7163
-13.7198 -10.3322 19.7338
-13.428 -10.4739 19.7711
-13.1995 -10.3981 19.7669
-13.0435 -10.0666 19.714
-12.8778 -9.73276 19.6611
-12.6865 -9.50405 19.6281
-12.4979 -9.30637 19.6005
-12.241 -9.30466 19.6107
-12.0218 -9.19063 19.5993
-11.8355 -8.98339 19.5699
-11.6415 -8.766 19.5288
-11.5014 -8.32705 19.456
-11.4082 -7.73756 19.3544
-11.2355 -7.4324 19.3069
-11.0489 -7.18458 19.2702
-10.8506 -6.98454 19.2426
-10.6783 -6.71997 19.2024
-10.4707 -6.55816 19.1819
-10.2654 -6.38679 19.1597
-10.1067 -6.02429 19.1014
-9.97084 -5.56798 19.0152
-9.89399 -4.9116 18.9009
-9.64874 -4.8621 18.9021
-9.48577 -4.5593 18.8547
-9.30144 -4.30193 18.8162
-9.16366 -3.85342 18.7416
-8.99796 -3.51959 18.6887
-8.79268 -3.34822 18.6665
-8.58973 -3.1673 18.6425
-8.36816 -3.06282 18.6329
-8.12989 -2.98465 18.6287
-7.92694 -2.80373 18.6046
-7.71428 -2.66278 18.578
-7.56021 -2.28117 18.5161
-7.35261 -2.11936 18.4956
-7.14966 -1.93843 18.4716
-6.93507 -1.80529 18.4566
-6.70844 -1.67934 18.4434
-6.54739 -1.3264 18.3869
-6.35375 -1.10724 18.3556
-6.1508 -0.926318 18.3316
-5.95949 -0.69761 18.2985
-5.77284 -0.449788 18.2619
-5.58577 -0.161379 18.2179
-5.37119 -0.0282348 18.2029
-5.18453 0.219586 18.1663
-4.99089 0.438738 18.135
-4.95358 1.30217 18.2261
-4.80576 0.734945 18.0795
-4.72928 1.43767 18.2111
-4.62841 1.02099 18.0356
-2.46332 4.4708 17.4972
-2.65038 4.18239 17.5411
-2.26736 4.6804 17.4678
-2.06674 4.87088 17.442
-1.84243 5.00638 17.4269
-1.62319 5.12042 17.4155
-1.37328 5.1508 17.4204
-1.16801 5.32217 17.3981
-0.962732 5.49354 17.3759
-0.8036 5.89663 17.3103
-0.575048 5.97243 17.3062
-0.36471 6.16528 17.2803
-0.145469 6.27931 17.2689
0.099783 6.32881 17.2701
0.293421 6.54796 17.2389
0.52238 6.66436 17.2274
1.04592 7.59955 17.0715
0.947304 6.99035 17.1866
1.28186 7.68728 17.0655
1.39133 8.2968 17.2151
1.46426 7.9948 17.018
25.2247 5.52279 18.7201
25.4742 5.51259 18.7322
25.5603 5.11442 18.5629
25.288 5.26077 18.5256
25.7237 5.50239 18.7443
25.8145 5.08511 18.5786
25.9732 5.49219 18.7563
26.064 5.0749 18.5907
26.4909 5.39534 18.7949
26.8451 4.91051 18.6522
26.5952 4.88012 18.6473
27.1105 4.79283 18.6841
27.3856 4.6775 18.716
27.6164 4.74375 18.7136
27.8799 4.67621 18.7365
28.1294 4.66601 18.7486
28.3649 4.71315 18.7498
28.6098 4.72206 18.7583
28.8616 4.7023 18.7722
29.1065 4.71121 18.7806
29.3467 4.73924 18.7855
29.5868 4.76726 18.7903
29.8363 4.75706 18.8024
30.0719 4.8042 18.8036
30.3191 4.80355 18.8139
30.5383 4.91758 18.8025
30.7835 4.96708 18.8037
31.0307 4.96644 18.814
31.2639 5.02313 18.8134
31.4855 5.1276 18.8038
31.7327 5.12696 18.8141
31.9635 5.19321 18.8117
32.2177 5.16389 18.8274
32.4579 5.19192 18.8322
32.6799 5.33698 18.8154
32.9014 5.44146 18.8058
33.1164 5.61519 18.7835
33.3543 5.65277 18.7866
33.4557 6.37994 18.9047
33.5344 5.96985 18.7373
-44.8317 -13.7229 18.7988
-45.1351 -13.5335 18.7525
-44.5492 -13.8263 18.8289
-44.3016 -13.7864 18.8319
-44.0191 -13.8898 18.862
-43.7552 -13.9167 18.8777
-43.522 -13.86 18.8771
-43.2465 -13.9348 18.9018
-42.9993 -13.9354 18.9121
-42.7192 -14.0293 18.9403
-42.4483 -14.0849 18.9614
-42.2016 -14.0838 18.9815
-41.9563 -14.0343 18.9827
-41.6998 -14.0731 19.0002
-41.3374 -14.4203 19.0772
-41.0409 -14.581 19.1181
-40.7701 -14.6366 19.1392
-40.4996 -14.7329 19.1675
-40.1442 -15.0513 19.239
-39.8593 -15.1643 19.2709
-35.5951 -26.1638 21.4643
-35.9153 -25.9481 21.4125
-35.3293 -26.2409 21.489
-35.0189 -26.459 21.5407
-34.7085 -26.6771 21.5925
-34.4311 -26.7596 21.6288
-34.1392 -26.9013 21.6661
-33.9111 -26.866 21.6691
-33.6309 -26.9599 21.6974
-33.3345 -27.1206 21.7384
-33.0827 -27.1404 21.7522
-32.8378 -27.1315 21.7607
-32.6166 -27.0676 21.7583
-32.3718 -27.0587 21.7668
-32.0823 -27.1907 21.8023
-31.8491 -27.1341 21.8017
-31.6233 -27.0893 21.803
-31.3994 -26.9944 21.7952
-31.0913 -27.2029 21.8451
-30.8139 -27.3278 21.8789
-30.5923 -27.2233 21.8693
-30.3498 -27.2048 21.8759
-30.0956 -27.2341 21.8916
-29.8438 -27.2539 21.9055
-29.592 -27.2736 21.9193
-29.3448 -27.2743 21.9296
-29.1423 -27.134 21.9128
-28.9021 -27.1059 21.9177
-28.6502 -27.1257 21.9315
-28.4031 -27.1263 21.9418
-28.1796 -27.072 21.9413
-27.9557 -26.9771 21.9335
-27.7578 -26.8176 21.9131
-27.5669 -26.6295 21.8873
-27.322 -26.6206 21.8957
-27.1405 -26.3943 21.8627
-26.9612 -26.1584 21.8278
-26.7489 -26.0157 21.811
-26.565 -25.7989 21.7798
-26.4071 -25.5175 21.736
-26.2627 -25.1383 21.6741
-26.0765 -24.9311 21.6446
-25.9554 -24.4986 21.5621
-25.851 -23.9975 21.4767
-25.7723 -23.3912 21.3715
-25.7335 -22.6631 21.2429
-25.8658 -20.4298 20.8278
-25.8929 -21.2057 20.9655
-25.8029 -19.7584 20.7001
-25.6543 -19.4388 20.6491
-25.5076 -19.0691 20.589
-25.3586 -18.709 20.5307
-25.177 -18.4827 20.4977
-24.9857 -18.254 20.4646
-24.8274 -17.932 20.4135
-24.6272 -17.7821 20.3949
-24.4595 -17.4985 20.3511
-24.2682 -17.2698 20.318
-24.1118 -16.94 20.2553
-23.9465 -16.6468 20.2096
-23.7952 -16.2962 20.1531
-23.5783 -16.1726 20.1399
-23.3781 -16.0227 20.1213
-23.1542 -15.9278 20.1135
-22.9303 -15.8329 20.1058
-22.7157 -15.6998 20.0908
-22.4848 -15.6335 20.0884
-22.2423 -15.615 20.095
-22.0444 -15.4556 20.0746
-21.8182 -15.3702 20.0687
-21.578 -15.3422 20.0735
-21.3378 -15.3142 20.0783
-21.0832 -15.3029 20.0868
-20.8384 -15.294 20.0952
-20.6052 -15.2373 20.0947
-20.344 -15.2953 20.1158
-20.1271 -15.1717 20.1026
-19.8823 -15.1628 20.111
-19.6467 -15.1157 20.1123
-19.4089 -15.0781 20.1153
-19.1803 -15.0023 20.1111
-18.9471 -14.9456 20.1105
-18.7116 -14.8984 20.1118
-18.523 -14.7008 20.0842
-18.3038 -14.5867 20.0728
-18.0706 -14.53 20.0722
-17.8909 -14.2535 20.0301
-17.7256 -13.9603 19.9845
-17.5273 -13.7603 19.9568
-17.3011 -13.6749 19.9508
-17.0399 -13.7329 19.9719
-16.7532 -13.896 20.0129
-16.5363 -13.7724 19.9997
-16.338 -13.5724 19.972
-16.1704 -13.2887 19.9282
-16.0376 -12.8616 19.8572
-15.9697 -12.1688 19.7259
-15.8556 -11.6653 19.6406
-15.7206 -11.2478 19.5714
-15.5013 -11.1338 19.56
-15.3333 -10.8095 19.5089
-15.1327 -10.6191 19.4831
-14.8855 -10.6197 19.4933
-14.6267 -10.6681 19.5126
-14.3842 -10.6497 19.5193
-14.1463 -10.6121 19.5223
-13.9201 -10.5267 19.5163
-13.6915 -10.4509 19.5122
-13.4021 -10.583 19.5477
-13.1549 -10.5836 19.5579
-12.9682 -10.3358 19.5213
-12.8122 -10.0043 19.4684
-12.6489 -9.66095 19.4137
-12.4552 -9.4418 19.3824
-12.2267 -9.36599 19.3782
-12.0028 -9.27107 19.3705
-11.8115 -9.08471 19.3348
-11.5662 -9.03521 19.336
-11.4475 -8.55085 19.2543
-11.312 -8.09278 19.1779
-11.1816 -7.6562 19.1051
-10.9857 -7.4466 19.0757
-10.799 -7.19878 19.039
-10.6473 -6.80761 18.9753
-10.4564 -6.61949 18.9495
-10.2511 -6.44812 18.9273
-10.1059 -6.03004 18.8483
-10.0054 -5.42864 18.7448
-9.83734 -5.10436 18.6937
-9.6181 -4.99033 18.6823
-9.46909 -4.6302 18.624
-9.27313 -4.4206 18.5946
-9.13535 -3.97209 18.52
-8.93473 -3.78161 18.4942
-8.72014 -3.64847 18.4792
-8.51871 -3.41916 18.4363
-8.29016 -3.34335 18.4321
-8.06161 -3.26754 18.4279
-7.8959 -2.93372 18.375
-7.69063 -2.76235 18.3528
-7.49233 -2.56231 18.3251
-7.29404 -2.36227 18.2975
-7.1004 -2.14311 18.2662
-6.87144 -2.02672 18.2548
-6.6778 -1.80757 18.2236
-6.48882 -1.5693 18.1887
-6.29053 -1.36926 18.1611
-6.07594 -1.23612 18.1461
-5.91023 -0.902291 18.0931
-5.70921 -0.671221 18.0601
-5.50393 -0.499851 18.0378
-5.26839 -0.452714 18.0391
-5.11159 -0.0824187 17.9691
-4.92494 0.165403 17.9324
-4.72857 0.415586 17.8958
-4.53493 0.634738 17.8645
-1.27515 4.74544 17.2529
-1.51574 4.67682 17.2553
-1.0978 5.03148 17.209
-0.915801 5.29842 17.1687
-0.684514 5.40525 17.1591
-0.476911 5.56707 17.1387
-0.229331 5.60701 17.1417
-0.0352893 5.8244 17.1006
0.161083 6.07459 17.0639
0.377997 6.19818 17.0507
0.606956 6.31457 17.0393
23.6777 5.82908 18.3477
23.9412 5.76154 18.3706
24.0362 5.28455 18.2158
23.7801 5.36401 18.1911
24.1953 5.73222 18.3862
24.3066 5.18834 18.2441
24.4495 5.70291 18.4019
24.5561 5.17814 18.2562
24.7428 5.47055 18.4555
24.8266 5.08193 18.2845
25.0016 5.42212 18.4748
25.1315 4.80179 18.3471
25.3741 4.82026 18.3537
25.6418 4.73536 18.3901
25.9099 4.64871 18.4166
26.1664 4.60984 18.4341
26.3391 4.95958 18.6226
26.4341 4.4826 18.4678
26.7069 4.37683 18.4979
26.9587 4.35707 18.5118
27.2035 4.36598 18.5203
27.4507 4.36534 18.5305
27.7118 4.30736 18.5516
27.952 4.33538 18.5565
28.2128 4.23681 18.5848
28.4464 4.33409 18.577
28.6796 4.39078 18.5764
28.9291 4.38058 18.5885
29.1805 4.32024 18.6096
29.4188 4.3984 18.6054
29.6753 4.35953 18.6229
29.9267 4.29919 18.644
30.151 4.43469 18.629
30.4047 4.36479 18.6519
30.6519 4.36415 18.6621
30.8553 4.58566 18.6309
31.0885 4.64235 18.6303
31.3287 4.67038 18.6351
31.5945 4.59328 18.6598
31.823 4.66909 18.6557
32.0566 4.76637 18.6479
32.2735 4.88996 18.6347
32.5091 4.93709 18.6359
32.7446 4.98423 18.6371
32.9782 5.08151 18.6293
33.1886 5.27436 18.6035
33.4283 5.26179 18.6155
33.6736 5.31129 18.6168
33.7172 6.31796 18.6825
33.8723 5.55192 18.5819
33.9663 6.26717 18.7018
34.0776 5.72329 18.5597
34.1696 6.48868 18.6705
34.3065 5.83968 18.5482
37.3999 11.4811 17.8898
37.5963 11.7313 17.8531
37.7095 11.1373 17.72
37.4922 10.9731 17.7405
-45.3967 -13.5161 18.7386
-45.1068 -13.6522 18.5309
-45.3823 -13.5774 18.5062
-44.782 -13.887 18.5862
-44.5251 -13.8853 18.5964
-44.245 -13.9791 18.6247
-43.9908 -14.0085 18.6404
-43.7785 -13.8657 18.6236
-43.4984 -13.9596 18.6519
-43.2275 -14.0152 18.673
-42.9757 -14.035 18.6868
-42.6955 -14.1288 18.7151
-42.4293 -14.1653 18.7326
-42.1961 -14.1086 18.732
-41.9346 -14.126 18.7458
-41.6428 -14.2677 18.7832
-41.3514 -14.4075 18.8303
-41.0382 -14.5946 18.8766
-40.7557 -14.698 18.9067
-40.4453 -14.9161 18.9585
-40.1488 -15.0768 18.9994
-39.885 -15.1038 19.015
-35.6277 -26.0746 21.2029
-35.9475 -25.8183 21.144
-35.3038 -26.3483 21.2754
-35.0259 -26.4326 21.3018
-34.7248 -26.6124 21.3464
-34.452 -26.7182 21.3765
-34.1649 -26.8407 21.4102
-33.9107 -26.87 21.4259
-33.6473 -26.9376 21.4488
-33.3624 -27.0505 21.4807
-33.052 -27.2686 21.5324
-32.8448 -27.1474 21.5192
-32.6023 -27.1289 21.5259
-32.3598 -27.1105 21.5325
-32.068 -27.2521 21.5698
-31.8348 -27.1954 21.5693
-31.6252 -27.0837 21.5579
-31.418 -26.9625 21.5447
-31.1262 -27.1041 21.582
-30.8368 -27.2362 21.6175
-30.5919 -27.2273 21.626
-30.3661 -27.1825 21.6273
-30.0953 -27.2381 21.6483
-29.8741 -27.1742 21.646
-29.6362 -27.1367 21.649
-29.3569 -27.2693 21.6944
-29.119 -27.2318 21.6974
-28.8811 -27.1942 21.7005
-28.6526 -27.1184 21.6963
-28.4198 -27.1023 21.703
-28.2029 -26.9787 21.6898
-27.9673 -26.9315 21.691
-27.7508 -26.8485 21.685
-27.52 -26.7823 21.6827
-27.324 -26.615 21.6506
-27.1215 -26.4747 21.6338
-26.9185 -26.2938 21.6098
-26.7276 -26.1057 21.584
-26.5767 -25.7957 21.5348
-26.4044 -25.5311 21.4945
-26.2391 -25.2379 21.4488
-26.0598 -25.0019 21.414
-25.9554 -24.5008 21.3286
-25.8367 -24.0588 21.2443
-25.7533 -23.4717 21.1427
-25.7284 -22.6862 21.0032
-25.8654 -20.4338 20.5845
-25.9162 -21.1547 20.7114
-25.7889 -19.818 20.4775
-25.6725 -19.3664 20.3914
-25.5328 -18.968 20.3259
-25.3559 -18.7226 20.2892
-25.1673 -18.5249 20.2616
-24.9974 -18.2508 20.2195
-24.8107 -18.0029 20.1829
-24.6361 -17.7479 20.1444
-24.4592 -17.5025 20.1078
-24.2655 -17.2833 20.0765
-24.1468 -16.8413 19.9922
-23.9931 -16.5003 19.9375
-23.7995 -16.2811 19.9062
-23.5709 -16.2053 19.9021
-23.3916 -15.9694 19.8672
-23.1608 -15.9032 19.8649
-22.9229 -15.8656 19.8679
-22.6827 -15.8375 19.8727
-22.4658 -15.714 19.8595
-22.2326 -15.6573 19.859
-22.0324 -15.5074 19.8404
-21.8108 -15.4029 19.8308
-21.5776 -15.3462 19.8302
-21.3374 -15.3182 19.8351
-21.0689 -15.3642 19.8543
-20.8217 -15.3649 19.8646
-20.5652 -15.4038 19.8821
-20.3157 -15.414 19.8941
-20.0918 -15.319 19.8864
-19.847 -15.3101 19.8948
-19.6208 -15.2248 19.8888
-19.3922 -15.149 19.8846
-19.1613 -15.0827 19.8823
-18.9374 -14.9878 19.8745
-18.6972 -14.9598 19.8793
-18.4803 -14.8362 19.8661
-18.315 -14.5429 19.8205
-18.1004 -14.4098 19.8055
-17.8956 -14.279 19.7905
-17.6973 -14.079 19.7628
-17.5013 -13.8694 19.7334
-17.2891 -13.7267 19.7166
-17.0749 -13.6341 19.7088
-16.8064 -13.6802 19.7281
-16.5731 -13.6235 19.7275
-16.3516 -13.519 19.7179
-16.1979 -13.178 19.6632
-16.1653 -12.3824 19.5121
-15.9833 -12.1155 19.4718
-15.8273 -11.784 19.4189
-15.6992 -11.3378 19.3444
-15.4986 -11.1474 19.3186
-15.3562 -10.718 19.2476
-15.142 -10.6254 19.2398
-14.8502 -10.767 19.2771
-14.5821 -10.8537 19.3036
-14.3205 -10.8711 19.3175
-14.0873 -10.8144 19.3169
-13.8871 -10.6645 19.2983
-13.6256 -10.6819 19.3122
-13.3737 -10.7017 19.3261
-13.1173 -10.7405 19.3435
-12.9003 -10.6169 19.3303
-12.7183 -10.35 19.2901
-12.6042 -9.84652 19.2047
-12.399 -9.67515 19.1825
-12.1937 -9.50378 19.1602
-11.9857 -9.34373 19.13
-11.7595 -9.25836 19.124
-11.5825 -9.0129 19.0874
-11.4168 -8.67908 19.0344
-11.2837 -8.21146 18.9563
-11.1626 -7.73664 18.8763
-10.955 -7.57483 18.8559
-10.7521 -7.3939 18.8319
-10.6306 -6.8785 18.7447
-10.4463 -6.66347 18.7036
-10.2433 -6.48255 18.6796
-10.1451 -5.87158 18.5743
-9.98172 -5.5282 18.5196
-9.79972 -5.26126 18.4793
-9.60376 -5.05167 18.4499
-9.42176 -4.78473 18.4096
-9.23045 -4.55603 18.3765
-9.03914 -4.32732 18.3435
-8.85208 -4.08125 18.297
-8.65145 -3.89077 18.2712
-8.45083 -3.70029 18.2453
-8.23857 -3.55759 18.2285
-8.01002 -3.48178 18.2243
-7.80707 -3.30086 18.2003
-7.63671 -2.98614 18.151
-7.44773 -2.74787 18.1161
-7.2378 -2.59562 18.0975
-7.03677 -2.36455 18.0644
-6.8408 -2.15495 18.035
-6.60992 -2.0887 18.0326
-6.42327 -1.84088 17.996
-6.25989 -1.4975 17.9412
-6.04763 -1.35479 17.9244
-5.86523 -1.08962 17.8743
-5.66653 -0.848993 17.8394
-5.44496 -0.744517 17.8298
-5.23968 -0.573147 17.8076
-5.04604 -0.353995 17.7764
-4.8357 -0.16115 17.7505
-4.63974 0.0484453 17.7211
-4.45308 0.296267 17.6844
-4.35758 0.920785 17.8206
-4.24082 0.438967 17.6676
-4.17093 1.16861 17.784
-4.06115 0.715458 17.6255
-3.99783 1.51435 17.7292
-3.87176 0.99431 17.5834
-3.80652 1.74306 17.6962
-3.66881 1.17524 17.5594
-3.63848 2.06733 17.6451
-3.53994 1.66021 17.4678
-0.0586349 4.90364 17.0203
-0.296904 4.82547 17.0245
0.148969 5.06545 16.9999
0.322066 5.4112 16.9452
0.494756 5.71636 16.8977
0.765204 5.62015 16.926
22.1764 5.9054 18.0284
22.4166 5.93343 18.0332
22.5326 5.37043 17.8947
22.23 5.64102 17.8339
22.6568 5.96145 18.0381
22.7937 5.31245 17.9158
22.9552 5.75056 18.0881
23.0502 5.27358 17.9333
23.2183 5.64244 18.1182
23.2931 5.33263 17.9327
23.5213 5.41244 18.1718
23.5864 5.10027 17.9863
23.8476 5.04229 18.0074
24.0948 5.04164 18.0176
24.3605 4.96455 18.0423
24.6492 4.7513 18.0923
24.936 4.58819 18.1333
25.1804 4.55652 18.149
25.4648 4.40297 18.1881
25.7376 4.2972 18.2182
25.9867 4.28876 18.2401
26.2381 4.22842 18.2612
26.5062 4.14176 18.2877
26.765 4.09334 18.307
27.0006 4.14047 18.3083
27.271 4.04426 18.3366
27.5317 3.94569 18.3649
27.7723 4.0143 18.3625
28.0102 4.05188 18.3655
28.262 4.03213 18.3794
28.5181 3.95267 18.4041
28.7792 3.89468 18.4252
29.0357 3.85581 18.4427
29.2666 3.92206 18.4403
29.4975 3.98831 18.438
29.7516 3.959 18.4536
30.0011 3.9488 18.4657
30.2297 4.0246 18.4615
30.4722 4.04307 18.4682
30.7105 4.12124 18.464
30.9553 4.13015 18.4724
31.1862 4.1964 18.4701
31.4124 4.28176 18.4641
31.6433 4.34801 18.4617
31.8905 4.34737 18.472
32.1353 4.35628 18.4804
32.3778 4.37474 18.4871
32.6157 4.41233 18.4901
32.8447 4.52872 18.4787
33.0779 4.58541 18.4781
33.2878 4.73767 18.4595
33.5214 4.83495 18.4517
33.7313 4.98721 18.4331
33.9324 5.21828 18.4
34.1706 5.29645 18.3958
34.3852 5.42959 18.3808
34.5029 6.08986 18.5115
34.5909 5.64155 18.3513
34.6923 6.36872 18.4694
34.8036 5.82484 18.3273
34.8724 6.6858 18.4201
35.0065 6.00576 18.3033
35.0757 6.90731 18.3888
35.2192 6.18905 18.2792
38.1255 11.5421 17.6647
37.9109 11.4089 17.6797
38.1976 11.2012 17.4846
38.0032 10.9009 17.5303
38.3289 11.7636 17.6334
38.4056 11.4036 17.4569
-45.0455 -13.8641 18.3273
-45.3466 -13.6842 18.2828
-44.7677 -13.9483 18.3538
-44.4852 -14.0517 18.3839
-44.2166 -14.0978 18.4031
-43.9765 -14.0698 18.408
-43.7242 -14.049 18.4146
-43.4677 -14.0878 18.4321
-43.2085 -14.0957 18.4441
-42.98 -14.0199 18.4399
-42.6858 -14.171 18.4791
-42.408 -14.2553 18.5055
-42.1748 -14.1986 18.505
-41.9086 -14.2352 18.5224
-41.6214 -14.3577 18.5561
-41.3343 -14.4802 18.5898
-41.0476 -14.6009 18.6334
-40.7767 -14.6566 18.6544
-40.4286 -14.987 18.7278
-40.1554 -15.0521 18.7507
-39.8683 -15.1747 18.7844
-39.4713 -15.6611 19.1317
-39.4919 -15.5791 18.8722
-35.6631 -25.9741 20.9497
-35.9801 -25.7291 20.8827
-35.3336 -26.2281 21.0086
-35.0515 -26.372 21.046
-34.7784 -26.4372 21.0688
-34.4986 -26.5717 21.1044
-34.1998 -26.742 21.1471
-33.922 -26.8262 21.1736
-33.7008 -26.7624 21.1712
-33.4323 -26.8084 21.1905
-33.1432 -26.9811 21.2332
-32.8584 -27.094 21.2651
-32.6019 -27.1329 21.2826
-32.3641 -27.0953 21.2856
-32.1378 -27.01 21.2797
-31.905 -26.9939 21.2863
-31.6788 -26.9085 21.2804
-31.4693 -26.7968 21.269
-31.1938 -26.8716 21.2937
-30.9214 -26.9756 21.3336
-30.6766 -26.9667 21.3421
-30.4364 -26.9386 21.3469
-30.1492 -27.0612 21.3806
-29.9118 -27.0642 21.3909
-29.62 -27.2058 21.4282
-29.3868 -27.1491 21.4276
-29.1303 -27.188 21.4451
-28.8691 -27.246 21.4662
-28.6452 -27.151 21.4584
-28.4217 -27.0967 21.4579
-28.2048 -26.9731 21.4447
-28 -26.8423 21.4297
-27.7435 -26.8812 21.4472
-27.4917 -26.901 21.4611
-27.317 -26.6459 21.4226
-27.1122 -26.5152 21.4076
-26.8906 -26.4107 21.398
-26.716 -26.1557 21.3596
-26.5716 -25.8188 21.2951
-26.3877 -25.602 21.2639
-26.2085 -25.3661 21.229
-26.0385 -25.092 21.187
-25.9271 -24.6195 21.107
-25.813 -24.116 21.0217
-25.7459 -23.5043 20.9048
-25.9259 -20.2299 20.3016
-25.9508 -21.0153 20.4411
-25.8169 -19.7479 20.2198
-25.6884 -19.3035 20.1355
-25.5185 -19.0294 20.0934
-25.3322 -18.8221 20.064
-25.1879 -18.4429 20.0021
-25.0109 -18.1974 19.9654
-24.8503 -17.8851 19.9162
-24.6404 -17.7328 19.8975
-24.4704 -17.4587 19.8555
-24.3121 -17.1368 19.8044
-24.1929 -16.6542 19.7128
-23.9857 -16.5329 19.6996
-23.7828 -16.352 19.6756
-23.5919 -16.1639 19.6498
-23.368 -16.069 19.642
-23.1464 -15.9645 19.6324
-22.9109 -15.9173 19.6336
-22.6567 -15.9467 19.6493
-22.4421 -15.8135 19.6343
-22.2276 -15.6804 19.6193
-22.0367 -15.4923 19.5935
-21.8174 -15.3782 19.5821
-21.5772 -15.3502 19.5869
-21.344 -15.2935 19.5864
-21.0615 -15.3969 19.6165
-20.826 -15.3498 19.6177
-20.5788 -15.3504 19.628
-20.313 -15.4275 19.6527
-20.0682 -15.4186 19.6611
-19.8373 -15.3524 19.6588
-19.5948 -15.3339 19.6654
-19.3686 -15.2485 19.6594
-19.1377 -15.1823 19.657
-18.9138 -15.0874 19.6493
-18.7275 -14.8801 19.6198
-18.5106 -14.7565 19.6066
-18.3123 -14.5565 19.579
-18.107 -14.3851 19.5568
-17.8905 -14.3021 19.5508
-17.6876 -14.1212 19.5268
-17.487 -13.9307 19.5009
-17.2914 -13.7617 19.4787
-17.0438 -13.7218 19.4818
-16.8483 -13.5528 19.4596
-16.5704 -13.637 19.486
-16.3586 -13.5349 19.4765
-16.3093 -12.7656 19.3307
-16.1672 -12.3768 19.267
-15.934 -12.3201 19.2664
-15.7637 -12.0054 19.2171
-15.6333 -11.5688 19.1444
-15.442 -11.3401 19.1114
-15.2767 -11.0469 19.0657
-15.0714 -10.8755 19.0435
-14.8289 -10.857 19.0501
-14.5584 -10.9533 19.0784
-14.2666 -11.0949 19.1157
-14.0357 -11.0286 19.1134
-13.8258 -10.8764 19.0947
-13.5833 -10.8579 19.1014
-13.3268 -10.8968 19.1189
-13.0913 -10.8496 19.1201
-12.8511 -10.8216 19.125
-12.6295 -10.7171 19.1154
-12.5387 -10.1181 19.0119
-12.3776 -9.76516 18.9554
-12.1673 -9.61466 18.927
-11.9713 -9.40506 18.8975
-11.7312 -9.37704 18.9024
-11.5329 -9.177 18.8747
-11.3745 -8.85509 18.8237
-11.2624 -8.30146 18.7292
-11.118 -7.92221 18.6673
-10.9244 -7.70306 18.6361
-10.7075 -7.57947 18.6229
-10.5487 -7.21698 18.5645
-10.3733 -6.92313 18.509
-10.2499 -6.45788 18.4309
-10.1447 -5.87558 18.331
-9.97436 -5.56086 18.2817
-9.78771 -5.31304 18.2451
-9.61269 -5.01744 18.1994
-9.39112 -4.91296 18.1898
-9.19009 -4.72424 18.1541
-8.98715 -4.54331 18.1301
-8.77256 -4.41017 18.1151
-8.58823 -4.15279 18.0766
-8.38063 -3.99098 18.0562
-8.1707 -3.83872 18.0376
-7.96076 -3.68646 18.019
-7.74618 -3.55332 18.0039
-7.53351 -3.37003 17.9799
-7.32824 -3.19866 17.9577
-7.1602 -2.87439 17.9066
-6.98518 -2.57879 17.8609
-6.78456 -2.3883 17.835
-6.57696 -2.22649 17.8146
-6.39961 -1.94044 17.7707
-6.23117 -1.61793 17.7098
-6.01892 -1.47523 17.693
-5.81556 -1.25371 17.6617
-5.63123 -0.996336 17.6232
-5.40268 -0.92053 17.6191
-5.21137 -0.691822 17.586
-4.99213 -0.57779 17.5746
-4.77015 -0.432727 17.5578
-4.5672 -0.251801 17.5337
-4.35727 -0.0995433 17.5151
-4.16131 0.110052 17.4857
-3.95795 0.331567 17.4544
-3.82716 0.808741 17.3744
-3.57533 0.788983 17.3883
-3.43948 1.24529 17.3021
-3.31564 1.79572 17.4527
-3.22681 1.42857 17.278
-3.14528 2.11043 17.4034
-2.99593 1.49482 17.2757
21.1327 6.13158 17.6909
21.4493 5.80365 17.7626
21.5055 5.5703 17.5626
21.2583 5.57095 17.5523
21.7034 5.77434 17.7782
21.8081 5.29972 17.6234
21.9762 5.66857 17.8084
22.0716 5.23218 17.6463
22.3304 5.18375 17.6656
22.5935 5.11797 17.6983
22.8658 4.97161 17.7357
23.1503 4.81807 17.7748
23.3951 4.82698 17.7833
23.6818 4.66387 17.8242
23.9449 4.55575 17.8544
24.1967 4.53599 17.8682
24.4579 4.478 17.8893
24.726 4.39135 17.9158
24.9941 4.3047 17.9423
25.2483 4.27538 17.958
25.5113 4.16726 17.9882
25.7841 4.06149 18.0183
26.0359 4.04173 18.0321
26.311 3.92641 18.0641
26.5714 3.8296 18.1022
26.8232 3.80984 18.1161
27.0773 3.78053 18.1318
27.3245 3.77988 18.142
27.5787 3.75057 18.1577
27.8258 3.74992 18.168
28.094 3.66327 18.1945
28.3524 3.57425 18.221
28.5902 3.61183 18.2241
28.8192 3.72823 18.2126
29.0729 3.65833 18.2356
29.3364 3.59079 18.2585
29.5626 3.67615 18.2525
29.8191 3.63728 18.27
30.0384 3.75131 18.2586
30.2879 3.74111 18.2706
30.5285 3.80972 18.2682
30.7799 3.74937 18.2893
31.0088 3.86577 18.2779
31.2513 3.88423 18.2846
31.5237 3.73788 18.3219
31.743 3.85191 18.3105
31.9626 4.00653 18.2919
32.2257 3.8984 18.322
32.4705 3.90732 18.3305
32.7134 3.96637 18.3299
32.9397 4.05173 18.3239
33.143 4.27325 18.2926
33.3692 4.35861 18.2867
33.6001 4.42486 18.2843
33.8314 4.5317 18.2747
34.039 4.69351 18.2542
34.2676 4.76932 18.2501
34.4434 5.1461 18.1899
34.6906 5.14545 18.2002
34.8893 5.38608 18.1653
35.1085 5.50011 18.1539
35.3095 5.73118 18.1208
35.4113 6.49894 18.2317
35.5408 5.83802 18.1112
35.5941 6.8047 18.1743
35.7624 5.94249 18.1016
35.8366 6.82317 18.181
35.9386 6.31751 18.0316
38.5053 10.9075 17.3058
38.3039 10.6359 17.3461
38.6253 11.5583 17.4383
38.7086 11.1291 17.2745
38.8011 11.935 17.3781
38.9372 11.2049 17.2703
-45.0121 -13.9613 18.102
-45.3249 -13.776 18.0459
-44.7463 -14.0383 18.1267
-44.4378 -14.2063 18.1694
-44.1953 -14.1878 18.1761
-43.9501 -14.1383 18.1773
-43.7029 -14.139 18.1876
-43.4604 -14.1205 18.1942
-43.2035 -14.1188 18.2044
-42.9842 -14.0047 18.1931
-42.7134 -14.0604 18.2141
-42.4006 -14.288 18.2677
-42.1507 -14.2576 18.2725
-41.8566 -14.4088 18.3116
-41.6071 -14.419 18.3237
-41.32 -14.5415 18.3574
-41.0421 -14.6258 18.3839
-40.7689 -14.691 18.4067
-40.4399 -14.9432 18.4755
-40.1388 -15.123 18.52
-39.8842 -15.1118 18.5285
-35.6557 -26.0068 20.7118
-35.9592 -25.8174 20.6655
-35.3523 -26.1962 20.7582
-35.0419 -26.4143 20.8099
-34.771 -26.4699 20.831
-34.5029 -26.5565 20.8575
-34.2041 -26.7268 20.9002
-33.943 -26.7848 20.9213
-33.6935 -26.795 20.9334
-33.4416 -26.8148 20.9472
-33.1754 -26.8513 20.9647
-32.9077 -26.9362 21.001
-32.6396 -27.0228 21.0275
-32.4087 -26.9566 21.0252
-32.1802 -26.8808 21.021
-31.9213 -26.9292 21.0403
-31.6718 -26.9394 21.0523
-31.4786 -26.7608 21.0283
-31.2291 -26.7711 21.0404
-30.9373 -26.9127 21.0777
-30.6622 -27.028 21.1096
-30.415 -27.0286 21.1199
-30.1702 -27.0197 21.1283
-29.923 -27.0204 21.1386
-29.6665 -27.0593 21.1561
-29.384 -27.1627 21.1862
-29.1206 -27.2302 21.2091
-28.8874 -27.1735 21.2085
-28.6639 -27.1192 21.208
-28.4144 -27.1294 21.22
-28.1719 -27.1109 21.2267
-27.9363 -27.0638 21.2279
-27.7291 -26.9425 21.2147
-27.5052 -26.8476 21.2069
-27.2957 -26.736 21.1956
-27.0978 -26.5765 21.1752
-26.9019 -26.3669 21.1457
-26.7179 -26.1501 21.1145
-26.5433 -25.8951 21.0761
-26.3408 -25.7548 21.0593
-26.1452 -25.5858 21.0371
-26.0381 -25.096 20.9437
-25.9524 -24.5184 20.8439
-25.8457 -24.0268 20.7604
-25.7692 -23.411 20.6533
-26.0191 -19.8922 19.9934
-26.0722 -20.6036 20.1184
-25.8798 -19.5344 19.9351
-25.6885 -19.3057 19.902
-25.5464 -18.9593 19.8357
-25.3575 -18.721 19.8009
-25.1991 -18.3991 19.7498
-25.0292 -18.125 19.7077
-24.8685 -17.8126 19.6584
-24.6846 -17.5958 19.6272
-24.531 -17.2548 19.5725
-24.3796 -16.9042 19.516
-24.2139 -16.6127 19.4605
-24.0249 -16.3745 19.4257
-23.8201 -16.2437 19.4107
-23.5915 -16.1679 19.4065
-23.3536 -16.1303 19.4096
-23.1158 -16.0927 19.4126
-22.8709 -16.0838 19.4211
-22.6424 -16.008 19.4169
-22.4162 -15.9226 19.4109
-22.2109 -15.7513 19.3887
-21.987 -15.6563 19.3809
-21.8007 -15.4491 19.3515
-21.5629 -15.4115 19.3545
-21.3343 -15.3357 19.3503
-21.0472 -15.4582 19.384
-20.8 -15.4589 19.3943
-20.5738 -15.3735 19.3883
-20.3313 -15.3551 19.395
-20.0655 -15.4322 19.4197
-19.816 -15.4424 19.4317
-19.5711 -15.4334 19.4402
-19.3519 -15.3194 19.4288
-19.1187 -15.2627 19.4282
-18.8808 -15.2251 19.4313
-18.7132 -14.9415 19.3874
-18.5195 -14.7223 19.3561
-18.2887 -14.6561 19.3538
-18.088 -14.4656 19.3279
-17.8762 -14.3635 19.3184
-17.6616 -14.2303 19.3034
-17.4726 -13.9921 19.2685
-17.284 -13.7944 19.2409
-17.0388 -13.7449 19.2421
-16.8572 -13.5185 19.2091
-16.6519 -13.3472 19.1868
-16.4843 -13.0635 19.143
-16.3205 -12.7218 19.0784
-16.085 -12.6747 19.0797
-15.9639 -12.1999 18.9997
-15.7633 -12.0094 18.9739
-15.598 -11.7162 18.9282
-15.4206 -11.4301 18.8843
-15.2367 -11.2133 18.8531
-14.9989 -11.1758 18.8561
-14.7443 -11.1645 18.8646
-14.5204 -11.0696 18.8568
-14.2267 -11.2613 18.9031
-13.9911 -11.2142 18.9044
-13.7556 -11.1671 18.9056
-13.5224 -11.1104 18.905
-13.3032 -10.9963 18.8936
-13.0676 -10.9492 18.8949
-12.8321 -10.9021 18.8961
-12.5965 -10.8549 18.8974
-12.4658 -10.3778 18.8174
-12.3307 -9.96028 18.7482
-12.1437 -9.71422 18.7017
-11.9454 -9.51418 18.6741
-11.7308 -9.38104 18.6591
-11.5069 -9.28612 18.6513
-11.3555 -8.93554 18.5948
-11.2457 -8.37235 18.4986
-11.106 -7.97399 18.4331
-10.9077 -7.77395 18.4054
-10.6861 -7.66948 18.3958
-10.52 -7.33741 18.3331
-10.3101 -7.18515 18.3145
-10.2775 -6.3472 18.1659
-10.1769 -5.74579 18.0625
-9.99027 -5.49797 18.0258
-9.82457 -5.20648 17.9703
-9.57234 -5.18565 17.9769
-9.34611 -5.10029 17.971
-9.13385 -4.95759 17.9542
-8.93556 -4.75755 17.9265
-8.72796 -4.59574 17.9061
-8.50871 -4.48171 17.8947
-8.29878 -4.32945 17.8761
-8.10514 -4.1103 17.8448
-7.89987 -3.93893 17.8226
-7.69186 -3.73653 17.7949
-7.4796 -3.59383 17.7781
-7.26501 -3.46068 17.7631
-7.07137 -3.24153 17.7319
-6.92661 -2.82169 17.6627
-6.7353 -2.59298 17.6297
-6.54126 -2.37559 17.5886
-6.34297 -2.17555 17.5609
-6.18192 -1.82261 17.5044
-5.99526 -1.57479 17.4678
-5.78259 -1.3915 17.4437
-5.57266 -1.23924 17.4251
-5.35342 -1.12521 17.4137
-5.13418 -1.01118 17.4023
-4.90057 -0.913899 17.3945
-4.7046 -0.704304 17.365
-4.49932 -0.532934 17.3428
-4.30103 -0.332894 17.3152
-4.10041 -0.142412 17.2893
-3.89705 0.0791027 17.2581
-3.74025 0.449398 17.1881
-3.53498 0.620768 17.1659
-3.34367 0.849476 17.1328
-3.10773 0.937201 17.1268
-2.94435 1.28059 17.0721
-2.8279 1.8191 17.2246
-2.71579 1.35639 17.0679
20.4586 5.81179 17.4764
20.7151 5.77292 17.4939
20.8222 5.28874 17.3409
20.5447 5.41362 17.3072
20.9693 5.74361 17.5096
21.0922 5.15195 17.3765
21.3603 5.06529 17.403
21.6215 5.00731 17.4241
21.8826 4.94933 17.4451
22.1786 4.748 17.4933
22.4142 4.79513 17.4945
22.6776 4.72759 17.5174
22.9388 4.66961 17.5385
23.1925 4.64205 17.564
23.4579 4.52437 17.596
23.7563 4.31348 17.646
24.0081 4.29373 17.6598
24.2712 4.1856 17.69
24.5323 4.12761 17.7111
24.8167 3.97407 17.7502
25.0639 3.97342 17.7605
25.3251 3.91544 17.7815
25.5788 3.84554 17.8045
25.8376 3.79711 17.8238
26.0825 3.80602 17.8322
26.3739 3.6238 17.8768
26.6319 3.53655 17.9131
26.872 3.56457 17.918
27.1448 3.45881 17.9481
27.4036 3.41038 17.9674
27.6694 3.33328 17.9921
27.9096 3.36131 17.9969
28.1591 3.3511 18.009
28.4012 3.32898 18.0229
28.6437 3.34745 18.0295
28.8932 3.33725 18.0416
29.1427 3.32705 18.0537
29.3969 3.29773 18.0693
29.6394 3.3162 18.076
29.8773 3.35378 18.079
30.1058 3.42959 18.0749
30.3693 3.36205 18.0978
30.6141 3.37096 18.1062
30.852 3.40854 18.1093
31.0806 3.48435 18.1051
31.3207 3.51237 18.1099
31.5656 3.52128 18.1184
31.7988 3.57797 18.1178
32.0553 3.5391 18.1353
32.3001 3.54801 18.1438
32.531 3.61426 18.1414
32.7739 3.67332 18.1408
32.9815 3.83513 18.1204
33.2124 3.90138 18.118
33.4573 3.91029 18.1265
33.6792 4.05536 18.1096
33.9008 4.15983 18.1
34.1274 4.28578 18.0868
34.3374 4.43804 18.0682
34.5589 4.54251 18.0586
34.7693 4.73536 18.0327
34.9982 4.85175 18.0213
35.1876 5.13061 17.9792
35.3975 5.28286 17.9606
35.6079 5.47571 17.9347
35.7996 5.745 17.8944
36.0425 5.80406 17.8938
36.1555 6.4411 18.0184
36.2529 5.95456 17.8654
36.343 6.7701 17.9672
36.4632 6.1474 17.8395
36.5464 6.99161 17.9359
36.6433 6.46448 17.7902
38.7878 10.7172 17.0972
38.5797 10.5148 17.1249
39.0027 10.8909 17.075
39.1681 11.2711 17.2679
39.2243 10.9954 17.0654
-44.9764 -14.1104 17.876
-45.2752 -13.9401 17.8333
-44.7083 -14.1547 17.9051
-44.4165 -14.2963 17.9424
-44.1526 -14.3232 17.9581
-43.9148 -14.2857 17.9611
-43.7002 -14.1525 17.9461
-43.4553 -14.1436 17.9545
-43.2078 -14.1037 17.9576
-43.0029 -13.9729 17.9426
-42.6897 -14.1599 17.9889
-42.3816 -14.3685 18.0388
-42.1271 -14.3572 18.0473
-41.8376 -14.4893 18.0828
-41.5505 -14.6118 18.1165
-41.2773 -14.6769 18.1393
-41.0134 -14.7039 18.155
-40.7123 -14.8838 18.1995
-40.4438 -14.9298 18.2188
-40.1407 -15.1175 18.275
-39.8745 -15.154 18.2924
-35.6763 -25.9248 20.4523
-35.9471 -25.8691 20.4312
-35.3612 -26.162 20.5077
-35.0508 -26.38 20.5594
-34.752 -26.5503 20.6021
-34.5165 -26.5032 20.6034
-34.2321 -26.6568 20.6425
-33.9616 -26.7106 20.6734
-33.7028 -26.759 20.6927
-33.4417 -26.817 20.7138
-33.1638 -26.9013 20.7403
-32.9004 -26.9689 20.7632
-32.6485 -26.9886 20.777
-32.453 -26.8196 20.7548
-32.1705 -26.923 20.7849
-31.914 -26.9619 20.8024
-31.6715 -26.9434 20.8091
-31.4666 -26.8126 20.7941
-31.2334 -26.7559 20.7935
-30.9583 -26.8713 20.8254
-30.6195 -27.1634 20.8916
-30.363 -27.2023 20.9091
-30.1512 -27.1002 20.8995
-29.9157 -27.053 20.9007
-29.6708 -27.0441 20.9092
-29.4636 -26.9229 20.896
-29.1718 -27.0645 20.9333
-28.906 -27.1416 20.958
-28.6212 -27.2546 20.9899
-28.3911 -27.2272 21.0046
-28.1533 -27.1896 21.0077
-27.9201 -27.1329 21.0071
-27.6915 -27.0571 21.0029
-27.5072 -26.8421 20.9619
-27.3046 -26.7017 20.9451
-27.0905 -26.6092 20.9373
-26.9089 -26.3828 20.9043
-26.7036 -26.2115 20.8821
-26.5057 -26.052 20.8617
-26.3404 -25.7588 20.816
-26.2713 -25.1549 20.7108
-26.1289 -24.7678 20.6373
-26.0199 -24.2858 20.5555
-25.8592 -23.9735 20.5062
-25.8158 -23.2645 20.3812
-26.0563 -19.7839 19.7284
-26.2007 -20.1631 19.7904
-25.8724 -19.5671 19.6972
-25.7304 -19.1783 19.6335
-25.553 -18.9346 19.587
-25.3501 -18.7537 19.563
-25.2178 -18.3672 19.4993
-25.0311 -18.1194 19.4626
-24.9081 -17.6947 19.3917
-24.7382 -17.4206 19.3497
-24.5799 -17.0987 19.2986
-24.4467 -16.6734 19.2178
-24.2484 -16.4734 19.1902
-24.0692 -16.2375 19.1553
-23.8453 -16.1426 19.1476
-23.6074 -16.105 19.1506
-23.3579 -16.1152 19.1627
-23.1131 -16.1063 19.1711
-22.8799 -16.0496 19.1706
-22.6374 -16.0311 19.1772
-22.4251 -15.8884 19.1604
-22.2082 -15.7648 19.1472
-21.9773 -15.6986 19.1448
-21.7794 -15.5391 19.1244
-21.5462 -15.4824 19.1239
-21.327 -15.3684 19.1125
-21.0468 -15.4622 19.1407
-20.7833 -15.5298 19.1636
-20.5385 -15.5209 19.1721
-20.3216 -15.3973 19.1589
-20.0465 -15.5126 19.1908
-19.8086 -15.475 19.1939
-19.5284 -15.5689 19.2221
-19.2976 -15.5026 19.2198
-19.0997 -15.3432 19.1994
-18.906 -15.124 19.1681
-18.6658 -15.096 19.173
-18.468 -14.9365 19.1526
-18.2767 -14.7078 19.1195
-18.0597 -14.5842 19.1063
-17.8521 -14.4224 19.0859
-17.6426 -14.3108 19.0745
-17.4606 -14.0438 19.0342
-17.2577 -13.8629 19.0102
-17.0435 -13.7703 19.0024
-16.8615 -13.5034 18.9622
-16.6539 -13.3416 18.9418
-16.4998 -13.0023 18.8772
-16.3062 -12.7832 18.846
-16.0869 -12.6692 18.8346
-15.9286 -12.3472 18.7835
-15.714 -12.2141 18.7685
-15.5227 -11.9854 18.7354
-15.397 -11.5297 18.6591
-15.2177 -11.2938 18.6243
-14.9725 -11.2443 18.6255
-14.716 -11.2832 18.6429
-14.4502 -11.3603 18.6676
-14.2053 -11.3513 18.6761
-13.9628 -11.3329 18.6828
-13.7203 -11.3144 18.6894
-13.4941 -11.229 18.6834
-13.2842 -11.0768 18.6648
-13.0603 -10.9819 18.657
-12.7871 -11.047 18.6799
-12.5869 -10.8972 18.6613
-12.4328 -10.5155 18.5994
-12.316 -10.0234 18.506
-12.1293 -9.77555 18.4693
-11.9077 -9.67108 18.4597
-11.7094 -9.47104 18.4321
-11.4879 -9.36657 18.4225
-11.3482 -8.9682 18.357
-11.222 -8.47192 18.2734
-11.0587 -8.12853 18.2186
-10.8631 -7.95952 18.1964
-10.676 -7.71346 18.1499
-10.4684 -7.55165 18.1295
-10.2748 -7.3325 18.0983
-10.2608 -6.41809 17.9353
-10.1645 -5.79933 17.8184
-9.96156 -5.6184 17.7944
-9.75861 -5.43747 17.7703
-9.53471 -5.34255 17.7625
-9.30151 -5.28586 17.762
-9.07994 -5.18139 17.7524
-8.87932 -4.9909 17.7266
-8.66939 -4.83865 17.7079
-8.4548 -4.7055 17.6929
-8.22119 -4.60822 17.6851
-8.02056 -4.41774 17.6593
-7.8246 -4.20814 17.6298
-7.59837 -4.12278 17.6239
-7.39543 -3.94185 17.5998
-7.20644 -3.70359 17.565
-7.0128 -3.48444 17.5337
-6.8723 -3.04725 17.4511
-6.68099 -2.81854 17.4181
-6.48037 -2.62806 17.3922
-6.28673 -2.4089 17.361
-6.14662 -1.96995 17.2882
-5.95531 -1.74125 17.2552
-5.73101 -1.60574 17.2401
-5.53737 -1.38659 17.2089
-5.32046 -1.263 17.1957
-5.06863 -1.28276 17.2095
-4.85131 -1.11858 17.1891
-4.64603 -0.947211 17.1669
-4.43843 -0.785397 17.1465
-4.23315 -0.614027 17.1242
-4.00844 -0.48028 17.0994
-3.85205 -0.108226 17.0392
-3.63979 0.0344752 17.0224
-3.44149 0.234514 16.9948
-3.25211 0.513367 16.9527
-3.01192 0.541391 16.9575
-2.83224 0.817881 16.9154
-2.61998 0.960582 16.8986
-2.54037 1.69258 17.015
-2.43059 1.23943 16.8565
18.1483 6.12484 17.0714
18.3959 6.16479 17.0744
18.5538 5.42978 16.9684
18.267 5.59288 16.9274
18.6985 5.8942 17.1353
18.7687 5.60351 16.9461
18.9066 6.0966 17.1076
19.0434 5.4476 16.9853
19.1793 5.99084 17.1377
19.291 5.48754 16.9883
19.4839 5.71245 17.2102
19.5634 5.34119 17.0257
19.7128 5.82885 17.1988
19.8404 5.21807 17.0692
20.0224 5.52959 17.265
20.1225 5.07408 17.1066
20.2952 5.42382 17.2951
20.4069 4.92053 17.1457
20.6564 4.91033 17.1578
20.9129 4.87146 17.1753
21.1853 4.72511 17.2126
21.4487 4.65757 17.2355
21.7006 4.63781 17.2494
21.9664 4.56071 17.2741
22.2484 4.41672 17.3114
22.4933 4.42563 17.3199
22.7731 4.2912 17.3554
23.0268 4.22129 17.3783
23.2852 4.17463 17.4074
23.5487 4.10709 17.4303
23.8121 4.03955 17.4532
24.0686 4.00067 17.4707
24.3414 3.89491 17.5008
24.5956 3.86559 17.5165
24.8563 3.76702 17.5448
25.1197 3.69948 17.5677
25.3692 3.68928 17.5798
25.6397 3.59307 17.6081
25.9051 3.47539 17.6401
26.1592 3.44607 17.6557
26.4134 3.41676 17.6714
26.6745 3.35878 17.6925
26.9465 3.21418 17.7397
27.1867 3.24221 17.7445
27.4296 3.30126 17.744
27.674 3.26958 17.7597
27.9468 3.16382 17.7898
28.1963 3.15362 17.8018
28.4598 3.08608 17.8247
28.707 3.08543 17.835
28.9565 3.07523 17.8471
29.2013 3.08414 17.8555
29.4388 3.08113 17.8658
29.6906 3.06138 17.8797
29.9634 2.95561 17.9098
30.1966 3.0123 17.9092
30.4181 3.11678 17.8996
30.6723 3.08746 17.9153
30.9241 3.06771 17.9292
31.155 3.13396 17.9268
31.4138 3.08553 17.9461
31.6265 3.26882 17.922
31.8663 3.25625 17.9341
32.1134 3.25561 17.9444
32.3466 3.3123 17.9438
32.5872 3.38091 17.9414
32.8387 3.32057 17.9625
33.063 3.45607 17.9475
33.2938 3.52232 17.9451
33.5247 3.58857 17.9428
33.7416 3.71216 17.9296
33.9729 3.819 17.9199
34.2061 3.87569 17.9194
34.4393 3.93238 17.9188
34.645 4.14434 17.8893
34.8689 4.23926 17.8815
35.0909 4.38432 17.8647
35.2896 4.62495 17.8298
35.4999 4.8178 17.804
35.7099 4.97005 17.7854
35.9062 5.22024 17.7487
36.1375 5.32707 17.739
36.3381 5.51756 17.7132
36.526 5.84479 17.6522
36.7662 5.87282 17.6571
36.8769 6.56176 17.7824
36.9556 6.15167 17.615
39.0884 10.4522 16.913
38.8758 10.2689 16.937
39.31 10.5566 16.9034
39.4141 11.3148 17.016
39.518 10.759 16.8757
39.6338 11.4695 16.9974
39.7148 11.0498 16.8318
-44.9551 -14.2004 17.649
-45.2423 -14.0778 17.6153
-44.6866 -14.2464 17.6682
-44.3971 -14.3785 17.7037
-44.136 -14.3941 17.7274
-43.9186 -14.2723 17.7044
-43.7184 -14.1224 17.6858
-43.4476 -14.178 17.7068
-43.226 -14.0736 17.6973
-42.9691 -14.0718 17.7075
-42.6568 -14.2977 17.7709
-42.3552 -14.437 17.8082
-42.0774 -14.5213 17.8346
-41.7879 -14.6533 17.8702
-41.5054 -14.7567 17.9002
-41.2346 -14.8124 17.9213
-40.9874 -14.813 17.9316
-40.7426 -14.8041 17.94
-40.4647 -14.8884 17.9665
-40.1539 -15.0659 18.011
-39.8885 -15.1412 18.0456
-39.6367 -15.1164 18.2955
-39.599 -15.2733 18.0811
-35.6903 -25.912 20.2054
-35.9867 -25.7513 20.1645
-35.4078 -26.0154 20.2355
-35.0927 -26.2526 20.2909
-34.7893 -26.442 20.3372
-34.5402 -26.4505 20.3591
-34.2837 -26.4893 20.3766
-33.9896 -26.6405 20.4157
-33.7047 -26.7535 20.4476
-33.4622 -26.735 20.4543
-33.222 -26.707 20.4591
-33.0009 -26.6431 20.4568
-32.7067 -26.7943 20.4959
-32.4759 -26.728 20.4935
-32.1868 -26.9007 20.5363
-31.9252 -26.9181 20.5501
-31.6595 -26.9952 20.5748
-31.4569 -26.8549 20.558
-30.4282 -26.9793 20.6225
-30.767 -26.6871 20.5563
-30.1978 -26.9536 20.6274
-29.9339 -26.9806 20.643
-29.6988 -26.974 20.6515
-29.4725 -26.8887 20.6455
-29.23 -26.8702 20.6522
-28.9316 -27.0388 20.7047
-28.6426 -27.2114 20.7475
-28.4164 -27.1261 20.7415
-28.2045 -27.0239 20.7319
-27.9806 -26.929 20.7241
-27.7358 -26.9201 20.7326
-27.5216 -26.8276 20.7248
-27.3186 -26.6466 20.7008
-27.1277 -26.4585 20.675
-26.9178 -26.3486 20.6538
-26.7316 -26.1414 20.6244
-26.6225 -25.6594 20.5426
-26.4689 -25.3183 20.4879
-26.3105 -24.9964 20.4369
-26.1643 -24.6673 20.384
-26.0195 -24.2898 20.3122
-25.8756 -23.9512 20.2576
-26.0913 -19.6851 19.4653
-26.2682 -19.9306 19.502
-25.9353 -19.3537 19.4125
-25.7607 -19.0986 19.374
-25.5806 -18.8239 19.3221
-25.3897 -18.6358 19.2963
-25.25 -18.2374 19.2308
-25.0847 -17.9442 19.1851
-24.9473 -17.5363 19.1178
-24.7797 -17.2526 19.0739
-24.6497 -16.8566 19.0084
-24.4696 -16.5819 18.9565
-24.2694 -16.432 18.9379
-24.0618 -16.2701 18.9175
-23.8356 -16.1848 18.9115
-23.5931 -16.1663 18.9181
-23.3622 -16.1001 18.9158
-23.1104 -16.1198 18.9296
-22.8609 -16.13 18.9417
-22.609 -16.1498 18.9556
-22.3921 -16.0262 18.9424
-22.1706 -15.9217 18.9328
-21.956 -15.7886 18.9178
-21.7604 -15.6196 18.8956
-21.5435 -15.496 18.8824
-21.3056 -15.4584 18.8854
-21.0585 -15.459 18.8957
-20.7736 -15.572 18.9276
-20.5358 -15.5344 18.9306
-20.3049 -15.4682 18.9283
-20.0647 -15.4402 18.9331
-19.8175 -15.4408 18.9434
-19.5727 -15.4319 18.9518
-19.3255 -15.4325 18.9621
-19.0523 -15.4977 18.9849
-18.887 -15.2045 18.9393
-18.6562 -15.1382 18.9369
-18.4439 -14.9955 18.9201
-18.2716 -14.7309 18.8798
-18.0733 -14.5309 18.8522
-17.8708 -14.3906 18.8354
-17.6585 -14.2479 18.8186
-17.4439 -14.1147 18.8036
-17.227 -13.9911 18.7904
-17.0338 -13.8126 18.7664
-16.8332 -13.6221 18.7406
-16.6582 -13.3265 18.6949
-16.4672 -13.1384 18.6691
-16.2639 -12.9592 18.6352
-16.1056 -12.6373 18.5841
-15.9189 -12.3895 18.5474
-15.6857 -12.3328 18.5469
-15.4897 -12.1232 18.5174
-15.3524 -11.7153 18.4501
-15.1401 -11.5726 18.4333
-14.9418 -11.3725 18.4057
-14.6807 -11.4305 18.4267
-14.4358 -11.4216 18.4352
-14.2026 -11.3649 18.4346
-13.9178 -11.4779 18.4665
-13.6776 -11.4498 18.4714
-13.4607 -11.3262 18.4582
-13.2368 -11.2313 18.4504
-13.0273 -11.1197 18.439
-12.7964 -11.0534 18.4366
-12.5702 -10.968 18.4307
-12.3859 -10.7107 18.3922
-12.2341 -10.3195 18.3284
-12.0614 -10.0567 18.2784
-11.8655 -9.84709 18.2489
-11.6765 -9.60883 18.2141
-11.4805 -9.39923 18.1846
-11.3055 -9.10363 18.1389
-11.1867 -8.61926 18.0572
-11.0397 -8.20898 17.9898
-10.8317 -8.04892 17.9596
-10.6241 -7.88711 17.9391
-10.4285 -7.7181 17.9169
-10.2628 -7.38427 17.864
-10.146 -6.84976 17.7732
-10.0896 -6.10913 17.6329
-9.88204 -5.94731 17.6125
-9.67677 -5.77594 17.5902
-9.45054 -5.69058 17.5842
-9.24061 -5.53833 17.5656
-9.05163 -5.30006 17.5308
-8.87428 -5.01401 17.4869
-8.62944 -5.0051 17.4953
-8.42416 -4.83373 17.4731
-8.21382 -4.64089 17.4473
-8.00156 -4.49819 17.4304
-7.78465 -4.3746 17.4172
-7.57472 -4.22234 17.3986
-7.36246 -4.07964 17.3818
-7.1502 -3.93694 17.365
-6.97286 -3.65089 17.3211
-6.80442 -3.32838 17.2602
-6.63871 -2.99455 17.2073
-6.44507 -2.7754 17.176
-6.22583 -2.66137 17.1646
-6.11598 -2.09818 17.0684
-5.89866 -1.93401 17.048
-5.69572 -1.75308 17.0239
-5.48346 -1.61038 17.0071
-5.2712 -1.46768 16.9903
-5.00267 -1.51375 17.0096
-4.79972 -1.33282 16.9855
-4.57117 -1.25701 16.9814
-4.3748 -1.04918 16.9421
-4.15789 -0.925589 16.9289
-3.95686 -0.694518 16.8958
-3.77253 -0.437141 16.8573
-3.5882 -0.179763 16.8188
-3.3806 -0.0179495 16.7984
-3.15862 0.127114 16.7816
-2.92309 0.17425 16.7828
-2.7341 0.412515 16.748
-2.52417 0.564772 16.7294
-2.31616 0.767174 16.7017
-2.19971 1.30568 16.8542
-2.09459 0.871649 16.6921
-1.99444 1.47705 16.8319
-1.8544 0.899673 16.6969
-1.80039 1.73679 16.7934
-1.65105 1.12119 16.6657
-1.51132 1.56413 16.8362
-1.43646 1.25433 16.6507
17.9849 5.73687 16.8901
18.3647 5.14693 16.7672
18.0803 5.30048 16.7281
18.6655 4.92648 16.819
18.901 4.97362 16.8202
19.1482 4.97298 16.8305
19.3701 5.11804 16.8137
19.6588 4.90479 16.8636
19.9036 4.9137 16.8721
20.19 4.75236 16.9229
20.4534 4.68482 16.9458
20.7099 4.64595 16.9633
20.992 4.50196 17.0006
21.2621 4.36516 17.0361
21.5209 4.31673 17.0554
21.7657 4.32564 17.0639
22.0431 4.20076 17.0976
22.3089 4.12367 17.1223
22.5631 4.09435 17.138
22.8429 3.95992 17.1735
23.0761 4.01661 17.173
23.3512 3.90129 17.2049
23.5937 3.91976 17.2115
23.8587 3.80383 17.2533
24.1105 3.78407 17.2672
24.3693 3.73565 17.2865
24.6258 3.69678 17.3039
24.8892 3.62924 17.3268
25.1597 3.53303 17.3551
25.4158 3.45357 17.3799
25.6862 3.35736 17.4082
25.9567 3.26115 17.4365
26.2062 3.25095 17.4486
26.4622 3.17149 17.4733
26.7005 3.24966 17.4691
26.9729 3.1033 17.5064
27.2224 3.0931 17.5185
27.4789 3.05423 17.536
27.7373 3.00756 17.5651
27.998 2.90899 17.5934
28.2405 2.92746 17.6001
28.4761 2.9746 17.6013
28.7372 2.91661 17.6224
29.017 2.78218 17.658
29.2571 2.8102 17.6628
29.5155 2.72119 17.6893
29.7441 2.79699 17.6851
29.9983 2.76768 17.7008
30.2501 2.74792 17.7147
30.4996 2.73772 17.7268
30.7351 2.78486 17.728
30.966 2.85111 17.7256
31.2015 2.89824 17.7269
31.451 2.88804 17.7389
31.6912 2.91606 17.7438
31.9272 3.00379 17.7378
32.1623 3.01034 17.7463
32.4048 3.02881 17.7529
32.6454 3.09742 17.7505
32.8786 3.15411 17.7499
33.1277 3.10332 17.7692
33.3543 3.22927 17.756
33.5899 3.27641 17.7573
33.8347 3.28532 17.7657
34.0633 3.36113 17.7615
34.2643 3.5922 17.7285
34.4882 3.68711 17.7207
34.7148 3.81307 17.7074
34.9248 3.96532 17.6888
35.1421 4.1295 17.6684
35.3543 4.2722 17.6516
35.5717 4.43637 17.6311
35.7909 4.55041 17.6197
35.99 4.83162 17.5776
36.2139 4.92654 17.5698
36.4173 5.14805 17.5385
36.6253 5.30811 17.5083
36.8379 5.4914 17.4842
37.0715 5.58868 17.4764
37.1683 6.33496 17.5909
37.254 5.8962 17.4289
37.367 6.57559 17.556
37.4759 6.04126 17.4121
37.5335 6.99059 17.4886
37.6746 6.28189 17.3772
39.1695 10.0325 16.7473
38.9708 9.7919 16.7822
39.3635 10.2923 16.7089
39.5944 10.3585 16.7065
39.8094 10.5322 16.6842
39.934 11.1639 16.8204
40.022 10.7155 16.6602
-45.5201 -13.9936 17.5888
-45.1903 -14.2515 17.4044
-45.5244 -13.9784 17.3419
-44.9194 -14.3071 17.4255
-44.6206 -14.4774 17.4682
-44.3614 -14.4853 17.4803
-44.1259 -14.4381 17.4815
-43.9206 -14.2667 17.4593
-43.6827 -14.2292 17.4623
-43.4309 -14.2489 17.4762
-43.2186 -14.1062 17.4594
-42.9524 -14.1427 17.4768
-42.6164 -14.4236 17.551
-42.3223 -14.5748 17.5902
-42.0351 -14.6973 17.6239
-41.762 -14.7625 17.6467
-41.4841 -14.8468 17.6732
-41.2369 -14.8474 17.6835
-40.9777 -14.8552 17.6955
-40.7352 -14.8368 17.7022
-40.4434 -14.9784 17.7395
-40.1302 -15.1654 17.7858
-39.8571 -15.2306 17.8087
-39.6052 -15.2504 17.8225
-35.7155 -25.8109 19.9423
-35.998 -25.7075 19.9122
-35.4311 -25.9644 19.9814
-35.1486 -26.0678 20.0115
-34.787 -26.4538 20.1056
-34.5258 -26.5118 20.1267
-34.281 -26.5029 20.1351
-34.0031 -26.5872 20.1616
-33.735 -26.6738 20.1881
-33.4925 -26.6554 20.1948
-33.264 -26.5796 20.1906
-33.0238 -26.5515 20.1954
-32.751 -26.6573 20.2256
-32.4829 -26.744 20.2521
-32.1887 -26.8951 20.2912
-31.9346 -26.9245 20.3068
-31.8279 -26.4329 20.2233
-30.1764 -27.0013 20.4029
-30.5218 -26.6822 20.3215
-29.913 -27.0688 20.4258
-29.6774 -27.0217 20.4271
-29.421 -27.0606 20.4445
-29.1645 -27.0994 20.462
-28.9173 -27.1001 20.4723
-28.7194 -26.9406 20.4519
-28.4443 -27.056 20.4838
-28.1925 -27.0757 20.4977
-27.9569 -27.0286 20.4989
-27.7331 -26.9337 20.4911
-27.5259 -26.8124 20.478
-27.3396 -26.6052 20.4485
-27.1204 -26.4912 20.4371
-26.9694 -26.1812 20.3879
-26.7618 -26.0194 20.3675
-26.6082 -25.7207 20.3102
-26.4076 -25.5302 20.2843
-26.2636 -25.1915 20.2297
-26.1476 -24.7382 20.1533
-26.0149 -24.3112 20.0824
-25.8663 -23.9916 20.0314
-26.1212 -19.5649 19.1986
-26.2934 -19.8295 19.2388
-25.9628 -19.243 19.1475
-25.7673 -19.074 19.1253
-25.6225 -18.6965 19.0536
-25.4619 -18.3841 19.0043
-25.3105 -18.0335 18.9478
-25.1685 -17.6447 18.8841
-24.9962 -17.3802 18.8438
-24.8123 -17.1634 18.8126
-24.6606 -16.8146 18.7463
-24.4646 -16.605 18.7168
-24.2621 -16.4646 18.7
-24.0545 -16.3028 18.6796
-23.8375 -16.1792 18.6664
-23.5997 -16.1416 18.6695
-23.3711 -16.0658 18.6653
-23.1309 -16.0378 18.6701
-22.8721 -16.0862 18.6894
-22.6133 -16.1347 18.7087
-22.3778 -16.0875 18.7099
-22.1422 -16.0404 18.7112
-21.937 -15.869 18.6889
-21.727 -15.7168 18.6703
-21.5129 -15.6242 18.6626
-21.2913 -15.5197 18.653
-21.0297 -15.5371 18.6668
-20.7826 -15.5378 18.6771
-20.5145 -15.6244 18.7036
-20.2789 -15.5773 18.7048
-20.0527 -15.4919 18.6988
-19.8241 -15.4161 18.6947
-19.584 -15.3881 18.6995
-19.3368 -15.3887 18.7098
-19.0826 -15.4181 18.7255
-18.8378 -15.4091 18.7339
-18.6348 -15.2282 18.7099
-18.4226 -15.0855 18.6931
-18.2712 -14.7349 18.6366
-18.1059 -14.4417 18.5909
-17.8727 -14.385 18.5903
-17.6419 -14.3188 18.588
-17.4319 -14.1665 18.5693
-17.2034 -14.0907 18.5652
-17.0404 -13.7879 18.5177
-16.8607 -13.5114 18.4756
-16.6508 -13.3592 18.457
-16.4459 -13.2284 18.442
-16.2589 -12.9823 18.3955
-16.0959 -12.6795 18.348
-15.8976 -12.4795 18.3204
-15.6714 -12.3941 18.3144
-15.4545 -12.2705 18.3012
-15.2655 -12.0323 18.2664
-15.0839 -11.8059 18.2333
-14.8739 -11.6537 18.2147
-14.6477 -11.5683 18.2087
-14.3889 -11.6167 18.228
-14.1673 -11.5122 18.2184
-13.9341 -11.4555 18.2179
-13.6563 -11.5398 18.2443
-13.4231 -11.4831 18.2438
-13.2108 -11.3404 18.227
-13.0009 -11.1882 18.2083
-12.817 -10.9714 18.1771
-12.5721 -10.9625 18.1856
-12.3413 -10.8962 18.1832
-12.1616 -10.6197 18.1411
-12.0448 -10.1276 18.0477
-11.8348 -9.97532 18.0291
-11.6389 -9.76573 17.9997
-11.4313 -9.60391 17.9792
-11.2702 -9.25097 17.9227
-11.1491 -8.77616 17.8428
-11.0086 -8.33897 17.7602
-10.7871 -8.23449 17.7506
-10.5818 -8.06312 17.7283
-10.3974 -7.80575 17.6899
-10.1619 -7.75861 17.6911
-10.0967 -7.05444 17.5678
-9.98493 -6.5414 17.4807
-9.85606 -6.05643 17.389
-9.65544 -5.86595 17.3632
-9.43853 -5.74236 17.35
