-24.9298 -17.7461 10.7632
-24.6058 -17.846 10.9572
-24.2006 -18.0937 11.308
-23.9298 -18.0817 11.3856
-23.389 -18.5891 12.0236
-23.1619 -18.5083 12.0267
-22.9109 -18.4802 12.0704
-22.6724 -18.4258 12.0868
-22.3235 -18.555 12.3143
-22.0788 -18.5137 12.3444
-21.8184 -18.5054 12.4087
-21.6206 -18.3654 12.336
-21.3947 -18.2846 12.325
-21.1624 -18.2171 12.3277
-20.9615 -18.0836 12.2619
-20.7012 -18.0519 12.3049
-20.2406 -18.4115 12.8003
-19.9958 -18.3702 12.8303
-19.7699 -18.2895 12.8193
-19.5408 -18.2153 12.8151
-19.2492 -18.2494 12.9266
-18.994 -18.2279 12.9913
-18.7649 -18.1537 12.9871
-18.5327 -18.0861 12.9898
-18.3923 -17.8276 12.7798
-18.3425 -17.425 12.4139
-18.199 -17.1731 12.2107
-18.0075 -17.02 12.1244
-17.7346 -17.038 12.2161
-17.4419 -17.0721 12.3416
-17.1878 -17.0505 12.3922
-16.9649 -16.9632 12.3744
-16.6796 -16.9841 12.4722
-16.3931 -17.0285 12.6053
-16.1671 -16.9477 12.5943
-15.9725 -16.8011 12.5148
-15.7121 -16.7928 12.5791
-15.4612 -16.7413 12.6016
-15.1872 -16.7593 12.7074
-14.9936 -16.6127 12.6138
-14.7958 -16.4727 12.5411
-14.573 -16.3854 12.5233
-14.2927 -16.4165 12.6427
-14.0887 -16.2897 12.5838
-13.9515 -16.0246 12.367
-13.7161 -15.9636 12.3765
-13.56 -15.7614 12.222
-13.4259 -15.4898 11.9983
-13.1488 -15.5144 12.111
-12.9166 -15.4468 12.1136
-12.7313 -15.2804 12.0136
-12.5022 -15.2063 12.0094
-12.2543 -15.1716 12.0463
-12.0097 -15.107 12.0551
-11.7263 -15.1447 12.1814
-11.4878 -15.0903 12.1978
-11.2431 -15.049 12.2279
-10.9703 -15.0436 12.2983
-10.7443 -14.9629 12.2872
-10.4953 -14.9282 12.3382
-10.2506 -14.8869 12.3683
-10.0184 -14.8193 12.371
-9.78304 -14.7583 12.3805
-9.56334 -14.6644 12.3558
-9.33425 -14.5902 12.3516
-9.10203 -14.5226 12.3543
-8.83437 -14.5041 12.4251
-8.62093 -14.397 12.3867
-8.42102 -14.287 12.3281
-8.21071 -14.1733 12.2828
-7.95982 -14.1218 12.3053
-7.73073 -14.0477 12.3011
-7.51103 -13.9537 12.2764
-7.30698 -13.8269 12.2174
-7.14037 -13.6445 12.0976
-6.93318 -13.5242 12.0455
-6.73964 -13.3776 11.9519
-6.50742 -13.3101 11.9546
-6.29398 -13.203 11.9162
-6.08367 -13.0893 11.871
-5.89525 -12.9296 11.7778
-5.7131 -12.7566 11.6709
-5.47463 -12.7022 11.6873
-5.29986 -12.5162 11.5526
-5.08955 -12.4025 11.5073
-4.85733 -12.3349 11.51
-4.69395 -12.1225 11.3621
-4.47738 -12.022 11.3305
-4.26393 -11.9149 11.2921
-4.07978 -11.7486 11.178
-3.9363 -11.4967 10.9748
-3.75415 -11.3238 10.868
-3.64822 -10.9929 10.5827
-3.49223 -10.7673 10.4069
-3.39568 -10.4167 10.1011
-3.20727 -10.2569 10.0079
-3.01686 -10.1038 9.90748
-2.83784 -9.9243 9.79376
-2.65881 -9.74481 9.68004
-2.45588 -9.61798 9.607
-2.28625 -9.41874 9.47273
-2.20222 -9.04177 9.13952
-2.23309 -8.42784 8.53162
-2.10839 -8.13645 8.28741
-1.90746 -8.00303 8.22161
-1.65647 -7.97494 8.26537
-1.42425 -7.90736 8.26804
-1.19404 -7.83318 8.27796
-0.927506 -7.81461 8.33467
-0.695289 -7.74703 8.33734
-0.463071 -7.67944 8.34001
-0.233983 -7.60527 8.33584
0.00449169 -7.55085 8.3522
0.242864 -7.47304 8.34729
0.468823 -7.39228 8.33627
0.688524 -7.29836 8.31155
0.946901 -7.28343 8.3831
1.16973 -7.1961 8.36523
1.40508 -7.13509 8.37475
1.66848 -7.10994 8.4246
1.8788 -6.99628 8.37935
2.07659 -6.85628 8.30671
2.32446 -6.8216 8.34362
2.56919 -6.78035 8.37368
2.76699 -6.64035 8.30103
3.00233 -6.57935 8.31055
3.24696 -6.5147 8.31933
3.47292 -6.43395 8.30831
3.76259 -6.48484 8.44832
3.95413 -6.33168 8.36199
4.1727 -6.23777 8.32317
4.38302 -6.1241 8.27792
4.5901 -5.98047 8.20454
4.85048 -5.97212 8.26883
5.09634 -5.93086 8.31299
5.32856 -5.86327 8.31566
5.55764 -5.7891 8.31149
5.74918 -5.63594 8.22515
5.96776 -5.54203 8.18634
6.21049 -5.49418 8.22365
6.41019 -5.33738 8.12247
6.63302 -5.25005 8.10461
6.83081 -5.11005 8.03197
7.08806 -5.09513 8.08941
7.29212 -4.96829 8.03047
7.51798 -4.86415 7.99816
7.77635 -4.84922 8.0697
7.9918 -4.74873 8.02405
8.18021 -4.58898 7.93087
8.40617 -4.50823 7.91985
8.61961 -4.40114 7.88144
8.84557 -4.32039 7.87042
9.1102 -4.31862 7.95566
9.35171 -4.2474 7.95758
9.58705 -4.18639 7.9671
9.78059 -4.03982 7.87352
10.0034 -3.95248 7.85565
10.22 -3.85198 7.82409
10.4428 -3.76465 7.80622
10.6624 -3.64734 7.76023
10.8821 -3.55342 7.73551
11.1112 -3.47925 7.73134
11.3215 -3.36559 7.68608
11.5444 -3.27825 7.66822
11.7702 -3.17411 7.63591
11.9899 -3.08019 7.6112
12.2534 -3.07843 7.68234
12.4575 -2.9516 7.62339
12.6521 -2.80502 7.5439
12.8687 -2.70452 7.51234
13.0758 -2.56088 7.43896
13.2799 -2.43405 7.38001
13.4922 -2.32697 7.32751
13.6931 -2.19356 7.26171
13.9546 -2.18521 7.3401
14.1805 -2.08107 7.3078
14.3896 -1.96741 7.24845
14.6 -1.85374 7.20319
14.8291 -1.77957 7.19902
15.078 -1.74489 7.25002
15.281 -1.61806 7.17698
15.463 -1.42177 7.04882
15.6608 -1.28177 6.97618
15.8711 -1.1681 6.93092
16.1158 -1.10346 6.9397
16.3261 -0.989792 6.89445
16.5227 -0.849802 6.80771
16.6892 -0.62059 6.64532
16.8963 -0.500341 6.59321
17.0867 -0.347185 6.49278
17.3095 -0.236463 6.45363
17.5417 -0.168875 6.4563
17.7614 -0.0749565 6.43159
17.9623 0.0584581 6.3658
18.1788 0.182346 6.31295
18.386 0.302596 6.26085
18.6119 0.383349 6.24983
18.8128 0.54015 6.16275
18.975 0.75255 6.0007
19.1497 0.962007 5.84475
19.3475 1.102 5.77211
19.5327 1.29172 5.6508
19.7168 1.45804 5.53667
19.9051 1.64117 5.42221
20.0935 1.80092 5.32903
20.2901 1.9643 5.221
20.4596 2.18692 5.06546
20.6219 2.39932 4.90341
20.8008 2.6022 4.7684
20.9974 2.76558 4.66038
21.1889 2.91874 4.57404
21.3479 3.16111 4.38386
21.4924 3.4364 4.17354
21.6577 3.66561 3.99705
21.823 3.89481 3.82056
22.0083 4.06114 3.72054
22.1829 4.2706 3.56459
22.39 4.41423 3.4912
22.5522 4.65002 3.30786
22.7562 4.77685 3.24892
22.979 4.88758 3.20977
23.1768 5.02757 3.13712
23.3932 5.15146 3.08428
23.6223 5.22563 3.08011
23.8076 5.39196 2.98008
23.9916 5.58167 2.84467
24.1893 5.74505 2.75074
24.3934 5.87188 2.6918
24.6056 6.00235 2.61801
24.8002 6.17232 2.51723
24.978 6.37519 2.36813
25.157 6.55468 2.25441
25.3254 6.7773 2.08477
25.5137 6.96044 1.9703
25.8631 6.79712 2.57378
25.6926 7.16332 1.8353
28.8918 2.06579 7.68253
28.5989 2.14665 7.51439
29.2441 1.85985 7.98076
29.6009 1.62396 8.32122
29.9051 1.51675 8.50265
30.2305 1.37007 8.75336
30.4972 1.34186 8.85263
30.7901 1.261 9.02077
31.0924 1.16039 9.20945
31.3591 1.13218 9.30872
31.6206 1.14053 9.38711
31.8811 1.12548 9.47269
32.129 1.16016 9.5096
32.3873 1.17509 9.58114
32.6227 1.2361 9.59066
32.8644 1.26055 9.63516
33.1029 1.31497 9.65153
33.3632 1.32331 9.71582
33.6311 1.29511 9.82919
33.8821 1.3232 9.87294
34.1113 1.37399 9.89005
34.3884 1.34942 10.0027
34.627 1.38046 10.0403
34.8874 1.3888 10.1046
35.1334 1.40668 10.1701
35.4001 1.37847 10.2693
35.6386 1.43289 10.2857
35.8645 1.51364 10.2747
36.101 1.57466 10.2983
36.3489 1.60933 10.3352
36.6062 1.60087 10.4139
36.7978 1.75403 10.3276
37.0456 1.78871 10.3645
37.2872 1.83655 10.3877
37.507 1.90708 10.3843
37.7266 2.02438 10.3383
37.9338 2.14463 10.2862
38.1598 2.22539 10.2752
38.3701 2.33905 10.2299
38.5773 2.4593 10.1778
38.7907 2.56639 10.1394
38.9948 2.69322 10.0805
39.2239 2.76739 10.0763
39.4267 2.9176 9.98196
39.66 2.98519 9.99873
39.8348 3.17126 9.86406
40.0419 3.3149 9.79068
40.2365 3.46148 9.71119
40.4688 3.52907 9.71386
40.6686 3.66248 9.63397
40.8851 3.76298 9.60241
41.0891 3.9132 9.52218
41.29 4.04661 9.45639
41.4909 4.18002 9.39059
41.7137 4.29075 9.35144
41.9135 4.42415 9.27155
42.1175 4.55099 9.2126
42.2965 4.75387 9.0776
42.5005 4.8807 9.01865
42.7033 5.03091 8.92432
42.9043 5.16433 8.85853
43.1176 5.2948 8.79883
43.2935 5.48087 8.67827
43.4869 5.65083 8.5634
43.6752 5.83397 8.44893
43.8374 6.06975 8.2656
44.032 6.23972 8.16482
44.2004 6.46234 7.99518
44.3123 6.82684 7.68101
46.5116 13.1799 2.22422
46.2281 13.241 2.07662
46.8359 13.0098 2.48211
47.0975 12.9948 2.58179
47.4049 12.881 2.77007
47.654 12.8923 2.84236
47.9144 12.9006 2.90665
48.1623 12.9119 2.96484
48.4144 12.94 3.02269
48.6655 12.9447 3.08773
48.8945 13.0423 3.06227
49.1236 13.1165 3.0581
49.3339 13.2301 3.01284
49.5535 13.3474 2.96684
49.7576 13.4743 2.9079
49.9447 13.6808 2.75805
50.1425 13.8208 2.68541
50.3683 13.9249 2.6531
50.5398 14.141 2.49031
50.7282 14.3241 2.37584
50.8621 14.7019 2.40041
50.8588 14.6725 2.08147
-31.9583 -14.4514 5.16636
-32.1467 -14.6111 5.25954
-31.5249 -14.6755 5.84828
-31.6698 -14.4789 5.27099
-31.2834 -14.6043 5.8502
-31.2916 -14.6673 5.57424
-29.1314 -17.0979 8.54517
-29.4355 -17.0374 8.40631
-28.675 -17.4509 9.01959
-28.3355 -17.5603 9.22658
-28.0021 -17.68 9.44116
-27.7282 -17.6746 9.52565
-27.4491 -17.6823 9.60974
-27.267 -17.5094 9.50286
-27.0191 -17.4747 9.53977
-26.7139 -17.5352 9.69273
-26.4505 -17.51 9.74258
-26.0128 -17.8235 10.1759
-25.6201 -18.0449 10.4993
-25.3785 -17.997 10.5225
-25.0858 -18.0311 10.6481
-24.838 -17.9964 10.685
-24.5453 -18.0305 10.8106
-24.0921 -18.3536 11.2569
-23.8317 -18.3452 11.3211
-23.3284 -18.7736 11.877
-22.9846 -18.913 12.1262
-22.8004 -18.7466 12.0121
-22.5776 -18.6593 11.9942
-22.336 -18.6115 12.0174
-22.0683 -18.5929 12.0882
-21.884 -18.45 11.9954
-21.6258 -18.4116 12.0456
-21.3435 -18.4494 12.1579
-21.1426 -18.316 12.0921
-20.9385 -18.1891 12.0331
-20.7126 -18.1084 12.0221
-20.2843 -18.4021 12.4349
-19.9259 -18.5745 12.7042
-19.7124 -18.4674 12.6658
-19.4771 -18.4064 12.6753
-19.2012 -18.4075 12.7526
-18.9909 -18.2939 12.7073
-18.6825 -18.3609 12.8671
-18.5128 -18.185 12.7542
-18.3537 -17.966 12.5853
-18.3957 -17.3726 12.0067
-18.2803 -17.0848 11.7632
-18.0543 -17.004 11.7522
-17.7409 -17.0842 11.9116
-17.4731 -17.089 12.0037
-17.2003 -17.0836 12.074
-16.965 -17.0226 12.0836
-16.6878 -17.0472 12.1962
-16.3857 -17.101 12.3423
-16.141 -17.0598 12.3724
-15.9412 -16.9264 12.2925
-15.7047 -16.8654 12.3161
-15.4475 -16.8504 12.3735
-15.1684 -16.8582 12.4576
-14.9226 -16.8169 12.5018
-14.7884 -16.5687 12.2994
-14.6011 -16.4089 12.1921
-14.2677 -16.5286 12.4067
-14.0824 -16.3623 12.3067
-13.9034 -16.1828 12.1929
-13.7348 -16.0069 12.0659
-13.607 -15.7221 11.8285
-13.4404 -15.5397 11.7087
-13.1551 -15.5606 11.8065
-12.8873 -15.5654 11.8986
-12.6801 -15.4452 11.8465
-12.4635 -15.3447 11.8149
-12.1876 -15.3459 11.8921
-11.9491 -15.2914 11.9085
-11.7044 -15.2502 11.9386
-11.4335 -15.2616 12.0375
-11.1637 -15.273 12.1223
-10.9285 -15.1886 12.1106
-10.6889 -15.1342 12.141
-10.4473 -15.0863 12.1642
-10.2088 -15.0319 12.1806
-9.98286 -14.9512 12.1696
-9.73187 -14.9231 12.2133
-9.49027 -14.8752 12.2365
-9.28621 -14.7484 12.1776
-9.05087 -14.6874 12.1871
-8.78946 -14.6556 12.2442
-8.54786 -14.6078 12.2674
-8.34067 -14.4876 12.2153
-8.12097 -14.3936 12.1906
-7.91805 -14.2668 12.1176
-7.68583 -14.1992 12.1203
-7.46926 -14.0987 12.0887
-7.28397 -13.9324 11.9887
-7.08607 -13.8158 11.9373
-6.87889 -13.6955 11.8852
-6.64677 -13.6046 11.8666
-6.452 -13.4814 11.8084
-6.24282 -13.3677 11.749
-6.0325 -13.254 11.7038
-5.82219 -13.1404 11.6585
-5.60874 -13.0333 11.6201
-5.38289 -12.9292 11.5878
-5.19437 -12.7928 11.5159
-5.03838 -12.5672 11.3402
-4.84997 -12.4075 11.247
-4.6553 -12.2609 11.1675
-4.45863 -12.1209 11.0808
-4.23893 -12.027 11.0561
-4.03487 -11.9002 10.9971
-3.87149 -11.6878 10.8492
-3.71863 -11.4556 10.6666
-3.58454 -11.184 10.4429
-3.44732 -10.9189 10.2261
-3.30384 -10.667 10.0229
-3.14046 -10.4546 9.87498
-2.95318 -10.2949 9.76771
-2.76164 -10.1417 9.68137
-2.55446 -10.0215 9.62927
-2.40785 -9.77614 9.43299
-2.25073 -9.55056 9.27134
-2.11977 -9.27234 9.04082
-2.21635 -8.52017 8.28914
-2.06974 -8.27486 8.09286
-1.88133 -8.11511 7.99968
-1.64911 -8.04752 8.00235
-1.40751 -7.99968 8.02556
-1.15652 -7.97159 8.06932
-0.930662 -7.86745 8.03701
-0.692187 -7.81303 8.05338
-0.430682 -7.80468 8.13177
-0.21411 -7.70418 8.10021
0.0212365 -7.64317 8.10973
0.259609 -7.56536 8.10481
0.485568 -7.48461 8.09379
0.708398 -7.39728 8.07592
0.943744 -7.33627 8.08544
1.19474 -7.30818 8.12919
1.43008 -7.24717 8.13871
1.65281 -7.13645 8.09956
1.87877 -7.0557 8.08854
2.10473 -6.97495 8.07752
2.31191 -6.8547 8.02542
2.53474 -6.76736 8.00755
2.80251 -6.77218 8.09964
3.0535 -6.74408 8.14339
3.32629 -6.73868 8.21379
3.52722 -6.60527 8.14799
3.75317 -6.52452 8.13697
3.95723 -6.39768 8.07803
4.17693 -6.30377 8.05331
4.41854 -6.25593 8.07652
4.6863 -6.26074 8.16861
4.91729 -6.16977 8.1359
5.14012 -6.08244 8.11803
5.35982 -5.98852 8.09332
5.58578 -5.90777 8.0823
5.81912 -5.84017 8.09907
5.98763 -5.64094 7.95071
6.19784 -5.50388 7.88417
6.43006 -5.4363 7.88684
6.64663 -5.3358 7.85528
6.86946 -5.24846 7.83742
7.10794 -5.19404 7.85378
7.37457 -5.19886 7.93177
7.58176 -5.07861 7.87967
7.80761 -4.97447 7.84736
8.03357 -4.89372 7.83634
8.26892 -4.83271 7.84586
8.53355 -4.83094 7.9311
8.70206 -4.63171 7.78274
8.89663 -4.46174 7.68197
9.06514 -4.26251 7.53361
9.29736 -4.19492 7.53629
9.5526 -4.1734 7.60098
9.77543 -4.08607 7.58312
10.0734 -4.15672 7.72957
10.2868 -4.04963 7.69116
10.4814 -3.87967 7.59039
10.6698 -3.71992 7.49721
10.8676 -3.57992 7.42457
11.1029 -3.51892 7.43409
11.332 -3.44475 7.42991
11.5642 -3.37716 7.43259
11.8277 -3.3754 7.50373
12.0348 -3.23176 7.43034
12.2577 -3.14443 7.41247
12.4617 -3.0176 7.35353
12.6689 -2.89735 7.30143
12.8949 -2.81659 7.29041
13.1332 -2.73878 7.28549
13.3467 -2.6317 7.24708
13.5527 -2.51146 7.18088
13.7537 -2.37804 7.11509
13.9451 -2.20149 7.00747
14.1679 -2.11416 6.9896
14.4033 -2.05315 6.99912
14.6042 -1.91974 6.93333
14.8101 -1.77611 6.84585
15.0404 -1.70193 6.85577
15.2601 -1.60801 6.83106
15.4661 -1.48777 6.76486
15.6733 -1.36752 6.71276
15.8804 -1.22389 6.63937
16.1251 -1.18263 6.66943
16.3448 -1.08871 6.64472
16.5176 -0.896052 6.5173
16.7267 -0.759005 6.43667
16.912 -0.592677 6.33664
17.1379 -0.511924 6.32562
17.3638 -0.407784 6.29332
17.5835 -0.313865 6.2686
17.7875 -0.187033 6.20965
17.9915 -0.0368144 6.12942
18.2049 0.0702694 6.09101
18.4079 0.197094 6.01797
18.6118 0.347313 5.93774
18.8033 0.500476 5.8514
18.9844 0.67338 5.73043
19.1633 0.87626 5.59543
19.3705 0.99651 5.54333
19.5639 1.16647 5.42846
19.7335 1.3891 5.27291
19.9207 1.54884 5.16563
20.1216 1.70564 5.07855
20.3006 1.88513 4.96483
20.444 2.16042 4.74042
20.6311 2.34354 4.61185
20.8258 2.49012 4.53237
21.0079 2.68642 4.40421
21.145 2.97487 4.1661
21.3228 3.17774 4.017
21.4892 3.40695 3.8546
21.6483 3.62593 3.6857
21.8198 3.84197 3.52291
22.0113 4.01852 3.41529
22.1933 4.21482 3.28713
22.3681 4.40089 3.15247
22.5627 4.57086 3.05169
22.7823 4.68816 3.0057
22.9957 4.79525 2.96729
23.2123 4.89575 2.93573
23.4088 5.05913 2.82771
23.6003 5.23568 2.72009
23.7844 5.402 2.60596
23.9884 5.55222 2.52573
24.1987 5.66588 2.48048
24.3901 5.84243 2.37286
24.5742 6.03214 2.23745
24.7656 6.20869 2.12983
24.956 6.36185 2.0294
25.1443 6.54498 1.91493
25.3128 6.7676 1.74529
25.5136 6.9244 1.65821
25.6769 7.1602 1.48897
26.045 6.95738 2.13353
25.864 7.34332 1.36041
28.9336 1.9208 7.49483
28.6019 2.10403 7.20914
29.2797 1.72803 7.77936
29.604 1.55795 8.03726
29.925 1.41784 8.26702
30.2304 1.31065 8.46255
30.5515 1.17054 8.69231
30.8256 1.12917 8.81937
31.1173 1.07169 8.95213
31.3945 1.02374 9.08604
31.6205 1.10449 9.07502
31.9165 1.01705 9.25001
32.1801 0.995419 9.34244
32.4342 1.01693 9.39304
32.674 1.04797 9.44478
32.9312 1.0629 9.50223
33.1853 1.0844 9.55283
33.4219 1.12203 9.59773
33.6385 1.22253 9.56617
33.902 1.22429 9.63731
34.1593 1.21583 9.71604
34.4052 1.25709 9.7602
34.6532 1.26838 9.81839
34.9198 1.26356 9.89638
35.1658 1.28144 9.96182
35.4261 1.28978 10.0261
35.6909 1.26816 10.1326
35.9168 1.34891 10.1216
36.1397 1.43625 10.1037
36.3582 1.53016 10.0649
36.6292 1.49538 10.1852
36.8646 1.55638 10.1947
37.0843 1.6503 10.17
37.3071 1.73763 10.1521
37.5456 1.79206 10.1685
37.7559 1.90572 10.1232
38.0006 1.94698 10.1533
38.1953 2.09356 10.0738
38.4244 2.16773 10.0696
38.6284 2.29456 10.0107
38.8231 2.44114 9.93117
39.0302 2.58478 9.85778
39.2593 2.65895 9.85361
39.4758 2.75945 9.82205
39.6725 2.89944 9.73531
39.8985 2.98019 9.72429
40.0931 3.12677 9.6448
40.2908 3.29016 9.55088
40.4949 3.41699 9.49193
40.7041 3.53065 9.43258
40.908 3.68087 9.35234
41.1027 3.82745 9.27286
41.3349 3.89504 9.27553
41.5327 4.03503 9.20289
41.7617 4.13259 9.17743
41.9626 4.26601 9.11164
42.1718 4.37967 9.05229
42.3633 4.55622 8.94467
42.5673 4.68305 8.88572
42.7639 4.84642 8.7777
42.9617 4.98642 8.70506
43.1625 5.14322 8.61798
43.3447 5.31613 8.5111
43.5537 5.45318 8.43047
43.7233 5.67581 8.27492
43.9074 5.84213 8.1608
44.0989 6.01868 8.05318
44.2609 6.27785 7.84856
44.398 6.5663 7.61045
46.5146 13.1373 1.91897
46.2279 13.205 1.76453
46.8576 12.9277 2.21795
47.1443 12.86 2.3724
47.4216 12.7887 2.52759
47.6914 12.7773 2.61242
47.9656 12.7125 2.76077
48.2072 12.7604 2.78398
48.4625 12.7819 2.84868
48.6916 12.856 2.84451
48.93 12.9105 2.86087
49.1623 12.9781 2.86355
49.3788 13.0786 2.83199
49.5985 13.1725 2.80727
49.8244 13.2766 2.77497
50.0084 13.4663 2.63956
50.2124 13.6165 2.55933
50.3976 13.8063 2.43801
50.5879 13.9828 2.3163
50.7824 14.1528 2.21553
50.9225 14.4814 1.94169
-30.9938 -14.7146 5.69941
-31.0188 -14.7213 5.35383
-31.2447 -14.8255 5.38613
-28.6676 -17.5234 8.75657
-29.1658 -17.1083 8.20034
-28.2906 -17.7119 9.04572
-28.0115 -17.7196 9.12981
-27.75 -17.7113 9.2082
-27.4073 -17.8273 9.42203
-27.1751 -17.7597 9.42471
-26.9898 -17.5934 9.32468
-26.7232 -17.5982 9.40267
-26.4629 -17.5665 9.44567
-26.1515 -17.6401 9.61233
-25.6003 -18.1438 10.2637
-25.3086 -18.2013 10.3964
-25.0472 -18.1695 10.4535
-24.8463 -18.0361 10.3877
-24.4847 -18.215 10.6639
-24.0315 -18.538 11.1102
-23.7306 -18.5919 11.2422
-23.2835 -18.9251 11.6961
-22.9877 -18.9658 11.8285
-22.698 -19.0167 11.9685
-22.5139 -18.8504 11.8544
-22.266 -18.8157 11.8913
-22.0495 -18.7152 11.8598
-21.8266 -18.6279 11.8419
-21.5809 -18.5632 11.8648
-21.308 -18.5812 11.9565
-21.107 -18.4478 11.8907
-20.8748 -18.3802 11.8933
-20.6208 -18.3353 11.9226
-20.3761 -18.294 11.9527
-19.9029 -18.6799 12.4755
-19.6144 -18.7075 12.5801
-19.401 -18.6004 12.5417
-19.1719 -18.5262 12.5375
-18.9522 -18.4323 12.5128
-18.7043 -18.3976 12.5497
-18.4753 -18.3234 12.5455
-18.3849 -17.983 12.2473
-18.4781 -17.2842 11.545
-18.369 -16.9833 11.2879
-18.0887 -17.0144 11.4073
-17.771 -17.1012 11.5877
-17.52 -17.0731 11.6314
-17.2628 -17.0348 11.6676
-16.9951 -17.0396 11.7597
-16.6878 -17.1066 11.9054
-16.3513 -17.2329 12.1268
-16.1316 -17.1389 12.1021
-15.9245 -17.0187 12.05
-15.6922 -16.9511 12.0527
-15.4569 -16.8901 12.0622
-15.1923 -16.8883 12.1474
-14.9663 -16.8076 12.1364
-14.8166 -16.5689 11.947
-14.6031 -16.4618 11.9086
-14.3553 -16.4271 11.9455
-14.0626 -16.4612 12.071
-13.9065 -16.259 11.9166
-13.7661 -16.0005 11.7066
-13.6058 -15.8049 11.5731
-13.3737 -15.714 11.5545
-13.1321 -15.6661 11.5777
-12.8779 -15.6446 11.6283
-12.6582 -15.5507 11.6036
-12.426 -15.4831 11.6062
-12.1583 -15.4879 11.6983
-11.8855 -15.4825 11.7687
-11.6083 -15.5071 11.8813
-11.3573 -15.479 11.9251
-11.1188 -15.4246 11.9415
-10.8648 -15.3797 11.9708
-10.619 -15.3384 12.0149
-10.3867 -15.2708 12.0176
-10.1232 -15.2691 12.0888
-9.90041 -15.1817 12.0709
-9.66194 -15.1273 12.0873
-9.43285 -15.0531 12.0831
-9.20689 -14.9724 12.0721
-8.99345 -14.8653 12.0337
-8.74569 -14.8072 12.0493
-8.51973 -14.7265 12.0383
-8.29264 -14.6457 12.0413
-8.05416 -14.5913 12.0577
-7.84072 -14.4842 12.0193
-7.62728 -14.3771 11.9809
-7.41809 -14.2635 11.9215
-7.20465 -14.1564 11.8831
-6.99746 -14.0361 11.831
-6.80592 -13.883 11.7447
-6.60187 -13.7561 11.6857
-6.40397 -13.6395 11.6344
-6.23233 -13.4469 11.4929
-5.99385 -13.3925 11.5092
-5.7898 -13.2656 11.4503
-5.56697 -13.1783 11.4324
-5.33485 -13.0873 11.4138
-5.1526 -12.9378 11.3282
-4.98096 -12.7451 11.1867
-4.77065 -12.6315 11.1415
-4.58536 -12.4651 11.0414
-4.38243 -12.3383 10.9684
-4.17838 -12.2115 10.9094
-4.01187 -12.0057 10.7683
-3.81833 -11.8591 10.6747
-3.65182 -11.6533 10.5336
-3.51147 -11.3948 10.3237
-3.368 -11.1429 10.1205
-3.24955 -10.8383 9.86262
-3.04237 -10.7181 9.81052
-2.87586 -10.5123 9.66941
-2.69796 -10.3328 9.5416
-2.51268 -10.1664 9.44157
-2.36607 -9.92113 9.24528
-2.24137 -9.62974 9.00107
-2.08738 -9.39758 8.83258
-2.11825 -8.78365 8.22468
-1.99355 -8.49226 7.98047
-1.84381 -8.25353 7.79103
-1.61472 -8.17936 7.78686
-1.37199 -8.13151 7.82417
-1.10536 -8.13633 7.90215
-0.895143 -7.99928 7.83562
-0.653539 -7.95144 7.85883
-0.393161 -7.9431 7.92312
-0.156688 -7.88208 7.94674
0.0598843 -7.78158 7.91518
0.290871 -7.69061 7.88247
0.521087 -7.61644 7.89239
0.743917 -7.5291 7.87453
0.982392 -7.47468 7.89089
1.224 -7.42684 7.9141
1.47186 -7.39217 7.95101
1.70084 -7.29461 7.92555
1.90803 -7.17436 7.87345
2.1246 -7.07386 7.84189
2.35995 -7.01285 7.85141
2.58591 -6.9321 7.84039
2.79309 -6.81185 7.78829
3.02521 -6.72088 7.76968
3.27933 -6.69937 7.82028
3.51154 -6.63178 7.82295
3.75315 -6.58394 7.84617
3.98962 -6.52293 7.86978
4.23435 -6.48167 7.89984
4.42902 -6.33509 7.82035
4.69556 -6.31653 7.87706
4.91526 -6.22261 7.85234
5.1068 -6.06944 7.76601
5.32337 -5.96894 7.73445
5.57436 -5.94085 7.7782
5.76477 -5.7877 7.67777
6.00427 -5.70988 7.68695
6.24588 -5.66204 7.71016
6.44255 -5.52205 7.62342
6.70092 -5.50712 7.69497
6.97382 -5.5251 7.78665
7.17787 -5.39827 7.7277
7.38193 -5.27144 7.66875
7.62343 -5.20021 7.67068
7.81184 -5.04047 7.5775
8.04093 -4.9663 7.57333
8.27628 -4.90529 7.58285
8.48972 -4.79821 7.54444
8.70942 -4.70429 7.51973
8.92589 -4.5804 7.46688
9.11943 -4.43383 7.3733
9.33913 -4.33991 7.34858
9.58812 -4.30523 7.39959
9.82973 -4.25739 7.4228
10.0526 -4.17005 7.40493
10.2785 -4.0893 7.39391
10.5075 -3.99174 7.36845
10.7241 -3.89124 7.33689
10.9145 -3.73809 7.23646
11.1467 -3.6705 7.23913
11.3539 -3.55025 7.18703
11.6018 -3.51558 7.22394
11.812 -3.37852 7.1574
12.0254 -3.27144 7.11899
12.2357 -3.15777 7.07374
12.4867 -3.12968 7.11749
12.6845 -2.98968 7.04485
12.8947 -2.85263 6.97831
13.1395 -2.81137 7.00837
13.3748 -2.75037 7.01789
13.6133 -2.69595 7.03426
13.8361 -2.60861 7.01639
14.0276 -2.45545 6.93006
14.2003 -2.2394 6.78136
14.4095 -2.12574 6.72201
14.6261 -2.02524 6.69045
14.8707 -1.9606 6.69922
15.1009 -1.88642 6.70915
15.3132 -1.77934 6.65664
15.5204 -1.65909 6.60454
15.7151 -1.51251 6.52505
15.9159 -1.35571 6.43798
16.1262 -1.24204 6.39272
16.3428 -1.14154 6.36116
16.5581 -1.01766 6.29422
16.7653 -0.897413 6.24212
16.9788 -0.790329 6.20371
17.1922 -0.683245 6.1653
17.4181 -0.579105 6.133
17.6284 -0.465439 6.08774
17.8094 -0.292535 5.96677
17.9883 -0.0896542 5.83177
18.1736 0.0766739 5.73174
18.4057 0.167649 5.71313
18.6055 0.301056 5.63324
18.7814 0.487132 5.51267
19.0073 0.591273 5.48036
19.1883 0.764176 5.35939
19.3923 0.914395 5.27916
19.5838 1.06756 5.19283
19.7971 1.19803 5.13314
19.9719 1.3841 4.99847
20.1602 1.56723 4.884
20.3224 1.80302 4.70067
20.4658 2.05491 4.49754
20.6197 2.31046 4.30776
20.7913 2.52649 4.14496
20.9764 2.71621 4.02365
21.1292 2.97175 3.81977
21.3207 3.12491 3.73344
21.5267 3.26854 3.64596
21.6795 3.52407 3.44208
21.8585 3.70357 3.32836
22.0144 3.95252 3.13133
22.2027 4.13565 3.01686
22.3836 4.33194 2.87461
22.5908 4.45219 2.82251
22.8104 4.5695 2.77651
23.0082 4.70949 2.70387
23.186 4.91237 2.55476
23.4025 5.03626 2.50192
23.6002 5.17625 2.42928
23.7979 5.33964 2.33535
23.9915 5.48621 2.24177
24.1954 5.63643 2.16154
24.3963 5.79323 2.07446
24.5679 5.98588 1.93295
24.7531 6.1756 1.81163
24.957 6.32582 1.7314
25.1129 6.57477 1.53437
25.2374 6.91294 1.24759
25.4341 7.05293 1.16085
25.638 7.20315 1.08062
29.3121 1.60279 7.57112
28.9522 1.84527 7.22382
29.6425 1.44293 7.82142
29.9824 1.23994 8.11355
30.2972 1.113 8.32962
30.612 0.986053 8.54569
30.8924 0.93152 8.68644
31.1434 0.959612 8.7302
31.4363 0.878748 8.89834
31.6811 0.896618 8.94968
31.9446 0.898378 9.02082
32.225 0.843846 9.16158
32.4992 0.802478 9.28864
32.7156 0.926367 9.2358
32.9667 0.931071 9.30083
33.2146 0.965745 9.33774
33.4731 0.957291 9.43057
33.7272 0.9788 9.48117
33.9814 0.976922 9.55305
34.221 1.03135 9.58352
34.4689 1.06603 9.62042
34.7137 1.08389 9.67177
34.9616 1.11857 9.70867
35.2 1.17299 9.72504
35.4742 1.13162 9.8521
35.722 1.1663 9.88901
35.9575 1.20392 9.91981
36.2127 1.22543 9.98451
36.4607 1.23672 10.0427
36.6741 1.3438 10.0043
36.9282 1.36531 10.0549
37.1573 1.43948 10.0507
37.3908 1.48369 10.0888
37.603 1.61415 10.015
37.8227 1.70807 9.99027
38.0268 1.8349 9.93133
38.2621 1.89591 9.94084
38.4505 2.05565 9.84766
38.6577 2.1759 9.79556
38.8899 2.24349 9.79824
39.1002 2.35716 9.75298
39.3199 2.45108 9.72827
39.5365 2.55158 9.69671
39.7237 2.7347 9.56815
39.9403 2.8352 9.53658
40.1568 2.9357 9.50502
40.3451 3.11884 9.39056
40.5586 3.22592 9.35215
40.749 3.37908 9.25172
40.9717 3.4898 9.21257
41.1758 3.61663 9.15362
41.3861 3.7303 9.10837
41.5995 3.83738 9.06996
41.8036 3.96421 9.01101
42.0138 4.10127 8.94447
42.2491 4.16227 8.95399
42.4552 4.28251 8.8878
42.6404 4.47223 8.76648
42.8351 4.61881 8.687
43.0128 4.82168 8.53789
43.22 4.94193 8.48579
43.4177 5.10532 8.39187
43.6113 5.25189 8.29828
43.7808 5.47452 8.14274
43.9554 5.70736 7.9655
44.1405 5.89708 7.84419
44.3152 6.10653 7.68824
44.4617 6.37523 7.47067
46.5469 13.0354 1.68945
46.2665 13.09 1.54869
46.8711 12.8654 1.94734
47.1441 12.824 2.06031
47.4528 12.6868 2.28397
47.7489 12.576 2.48024
47.9948 12.6172 2.5244
48.2489 12.6388 2.575
48.5 12.6435 2.64003
48.751 12.6715 2.68379
48.9843 12.7391 2.70056
49.2134 12.8133 2.69638
49.4195 12.9336 2.63019
49.6716 12.9617 2.68804
49.8788 13.0819 2.63594
50.0596 13.3016 2.47239
50.2824 13.3889 2.45453
50.4864 13.5391 2.3743
50.6642 13.742 2.22519
50.8274 14.0012 2.03467
50.9925 14.2538 1.83689
-34.4962 -10.9059 0.650288
-34.2328 -10.8808 0.700144
-34.1691 -11.0719 0.560368
-34.3481 -11.2514 0.674089
-30.8585 -14.5257 5.22031
-30.7417 -14.8053 5.17564
-30.9583 -14.9058 5.2072
-28.2488 -17.8569 8.85802
-28.5665 -17.7701 8.67767
-27.9884 -17.8485 8.92231
-27.725 -17.8234 8.97216
-27.4791 -17.7821 9.01632
-27.124 -17.9245 9.25754
-26.9043 -17.8305 9.23283
-26.6814 -17.7432 9.21496
-26.3961 -17.7641 9.31275
-26.0347 -17.9197 9.56766
-25.5783 -18.2727 10.0421
-25.2668 -18.3462 10.2087
-25.0253 -18.275 10.2107
-24.7669 -18.2601 10.2822
-24.3711 -18.488 10.6124
-23.971 -18.7225 10.9636
-23.695 -18.7471 11.0621
-23.2511 -19.0504 11.4879
-23.0939 -18.8482 11.3475
-22.8617 -18.7806 11.3502
-22.5545 -18.8476 11.4959
-22.2555 -18.8949 11.6352
-22.0202 -18.8339 11.6447
-21.8474 -18.6412 11.5173
-21.6539 -18.4946 11.4237
-21.408 -18.4534 11.4678
-21.1633 -18.4121 11.4979
-20.8487 -18.4923 11.6714
-20.6134 -18.4313 11.6809
-20.3968 -18.3308 11.6494
-19.9497 -18.664 12.1032
-19.6132 -18.7903 12.3247
-19.3842 -18.7161 12.3205
-19.1145 -18.7041 12.384
-18.9448 -18.5283 12.2711
-18.7251 -18.4343 12.2463
-18.5085 -18.3338 12.2148
-18.4192 -17.9934 11.9024
-18.5438 -17.2288 11.1317
-18.399 -17.0003 10.964
-18.17 -16.9261 10.9598
-17.8303 -17.0589 11.1881
-17.5106 -17.1523 11.3612
-17.2336 -17.1535 11.4525
-16.992 -17.1056 11.4757
-16.7284 -17.1039 11.5469
-16.4545 -17.0984 11.6313
-16.1367 -17.2086 11.833
-15.9076 -17.1344 11.8288
-15.7098 -16.9944 11.7562
-15.4683 -16.9232 11.7581
-15.1798 -16.9741 11.884
-14.9339 -16.9328 11.9282
-14.7936 -16.6743 11.7182
-14.6032 -16.5212 11.6178
-14.3229 -16.5523 11.7372
-14.1063 -16.4518 11.7057
-13.9472 -16.2329 11.5368
-13.7806 -16.0504 11.4169
-13.5964 -15.8841 11.3028
-13.3924 -15.7573 11.2439
-13.1434 -15.7226 11.2949
-12.8893 -15.6777 11.3242
-12.6258 -15.6759 11.3953
-12.3675 -15.661 11.4669
-12.0884 -15.6688 11.551
-11.7956 -15.7262 11.6978
-11.5415 -15.7047 11.7484
-11.3093 -15.6371 11.7511
-11.049 -15.6054 11.7941
-10.8094 -15.551 11.8246
-10.5522 -15.5361 11.882
-10.3199 -15.4685 11.8847
-10.0846 -15.4075 11.8942
-9.84925 -15.3465 11.9037
-9.592 -15.3315 11.9612
-9.36491 -15.2508 11.9642
-9.16198 -15.1239 11.8912
-8.94541 -15.0234 11.8596
-8.73197 -14.9164 11.8212
-8.50601 -14.8356 11.8102
-8.25512 -14.7841 11.8327
-8.02916 -14.7034 11.8217
-7.81885 -14.5897 11.7764
-7.5835 -14.5287 11.7859
-7.37319 -14.415 11.7407
-7.13784 -14.354 11.7502
-6.92127 -14.2535 11.7186
-6.72973 -14.1004 11.6323
-6.53819 -13.9472 11.546
-6.35706 -13.7977 11.4463
-6.153 -13.6709 11.3873
-5.94269 -13.5572 11.3421
-5.72925 -13.4501 11.3037
-5.494 -13.3657 11.2919
-5.33365 -13.1701 11.1584
-5.10456 -13.0959 11.1542
-4.92041 -12.9296 11.0401
-4.71948 -12.7962 10.9743
-4.53733 -12.6233 10.8674
-4.3344 -12.4965 10.7944
-4.14912 -12.3301 10.6943
-3.95132 -12.1901 10.6217
-3.76091 -12.037 10.5213
-3.58501 -11.8509 10.4007
-3.4697 -11.5398 10.136
-3.34499 -11.2484 9.89174
-3.17961 -11.0426 9.73654
-3.0131 -10.8367 9.59543
-2.81531 -10.6967 9.52279
-2.6687 -10.4514 9.32651
-2.4908 -10.2719 9.19869
-2.33994 -10.0332 9.02335
-2.14527 -9.88662 8.94386
-2.00805 -9.62156 8.72703
-1.97835 -9.1327 8.26332
-1.95177 -8.63725 7.79277
-1.80829 -8.38535 7.58963
-1.59172 -8.28485 7.55807
-1.36576 -8.2041 7.54705
-1.11164 -8.18259 7.59765
-0.847109 -8.15743 7.66161
-0.627408 -8.06352 7.63689
-0.376417 -8.03542 7.68064
-0.122296 -8.01392 7.73124
0.0911466 -7.90683 7.69284
0.32639 -7.82244 7.68107
0.558607 -7.75485 7.68375
0.781437 -7.66752 7.66588
0.99488 -7.56043 7.62747
1.23023 -7.49943 7.63699
1.46244 -7.43184 7.63966
1.69456 -7.34086 7.62105
1.91426 -7.24695 7.59634
2.16012 -7.20568 7.6405
2.40485 -7.16443 7.67056
2.63707 -7.09684 7.67323
2.85051 -6.98975 7.63482
3.07324 -6.87903 7.59567
3.30233 -6.80486 7.5915
3.5189 -6.70436 7.55994
3.78554 -6.70918 7.63792
4.01462 -6.63501 7.63375
4.26249 -6.60034 7.67065
4.4927 -6.52616 7.68058
4.71117 -6.40886 7.62048
4.92149 -6.29519 7.57523
5.12554 -6.16836 7.51628
5.33586 -6.0547 7.47103
5.53366 -5.9147 7.39839
5.80655 -5.93269 7.49007
6.02302 -5.8088 7.43722
6.25211 -5.73463 7.43305
6.49371 -5.68679 7.45626
6.71967 -5.60604 7.44524
6.96553 -5.56477 7.4894
7.17897 -5.45769 7.45099
7.39755 -5.36378 7.41218
7.65582 -5.32546 7.46244
7.87552 -5.23154 7.43772
8.07532 -5.09813 7.35783
8.26999 -4.95155 7.27835
8.48343 -4.84447 7.23994
8.72817 -4.80321 7.27
8.94151 -4.67274 7.21031
9.14869 -4.55249 7.15821
9.3903 -4.50465 7.18142
9.60687 -4.40415 7.14986
9.83283 -4.3234 7.13884
10.0744 -4.27556 7.16205
10.2596 -4.08584 7.04074
10.4438 -3.91952 6.92661
10.7147 -3.93092 7.02555
10.9375 -3.84358 7.00768
11.1509 -3.7365 6.96927
11.383 -3.64552 6.95066
11.6247 -3.59768 6.97387
11.8756 -3.56959 7.01763
12.1047 -3.49542 7.01345
12.3025 -3.35542 6.94081
12.5097 -3.23517 6.88871
12.7324 -3.12445 6.84956
12.949 -3.02395 6.818
13.1562 -2.9037 6.7659
13.3623 -2.78346 6.6997
13.5956 -2.71586 6.71647
13.8215 -2.61172 6.68416
14.0369 -2.51123 6.63851
14.2629 -2.43048 6.62749
14.4481 -2.26415 6.52746
14.6616 -2.15707 6.48905
14.8781 -2.03318 6.43621
15.1103 -1.96559 6.43888
15.3456 -1.90458 6.4484
15.5653 -1.81067 6.42369
15.7725 -1.69042 6.37158
15.944 -1.47438 6.20879
16.1512 -1.35413 6.15669
16.3678 -1.25363 6.12513
16.5937 -1.14949 6.09282
16.804 -1.03582 6.04757
17.0018 -0.895823 5.97493
17.2182 -0.771935 5.92208
17.4505 -0.704347 5.92476
17.6503 -0.57094 5.84486
17.8481 -0.430943 5.77222
18.0301 -0.234645 5.64406
18.2205 -0.0814891 5.54363
18.4464 0.0226511 5.51133
18.6473 0.156066 5.44553
18.8482 0.28948 5.37974
19.0354 0.472606 5.25118
19.2269 0.625769 5.16484
19.434 0.769405 5.09146
19.635 0.902819 5.02566
19.8034 1.12544 4.85602
19.9624 1.36781 4.66584
20.0964 1.66284 4.42088
20.2565 1.90522 4.2448
20.4469 2.05837 4.14436
20.629 2.25467 4.01621
20.7786 2.51679 3.80548
20.9545 2.70287 3.68491
21.1667 2.83333 3.61113
21.3614 2.97991 3.53164
21.5142 3.23545 3.32776
21.6899 3.44491 3.18591
21.8458 3.69386 2.98888
22.0216 3.90332 2.84703
22.2183 4.04331 2.76029
22.4003 4.23961 2.63213
22.6199 4.35692 2.58613
22.8104 4.51007 2.4857
23.0081 4.67346 2.39178
23.209 4.80687 2.32598
23.4056 4.97025 2.21796
23.5907 5.15997 2.09665
23.7917 5.29338 2.03085
23.9925 5.45018 1.94377
24.1859 5.62014 1.8289
24.3868 5.75356 1.76311
24.5678 5.94985 1.62085
24.7185 6.21197 1.42423
24.843 6.55014 1.13745
25.0114 6.77276 0.967805
25.1955 6.96247 0.832395
25.3807 7.15218 0.711083
29.6393 1.39009 7.52377
29.3119 1.56675 7.25903
29.9729 1.22365 7.78092
30.3234 1.00092 8.10768
30.6037 0.946386 8.24844
30.8985 0.882319 8.38805
31.1602 0.867283 8.48772
31.4363 0.819326 8.60753
31.704 0.814511 8.69962
31.977 0.773136 8.81258
32.2731 0.68569 8.98757
32.5178 0.726947 9.01763
32.7574 0.781376 9.04809
33.0054 0.792663 9.10628
33.2438 0.847085 9.12265
33.5117 0.818883 9.23602
33.769 0.833809 9.29347
34.0263 0.825348 9.3722
34.2878 0.833699 9.45059
34.5232 0.894704 9.46011
34.7836 0.87966 9.54569
35.0389 0.901176 9.61038
35.2775 0.932211 9.64803
35.5347 0.947137 9.70548
35.7669 1.01472 9.70815
36.0223 1.01285 9.79413
36.2733 1.04095 9.83789
36.5181 1.05881 9.88923
36.7378 1.15273 9.86452
36.9868 1.18741 9.91552
37.2191 1.23162 9.93948
37.4419 1.31895 9.92161
37.6648 1.40629 9.90375
37.877 1.53675 9.82996
38.0873 1.65042 9.7847
38.2882 1.78383 9.71891
38.5017 1.89092 9.6805
38.7339 1.9585 9.68317
38.9286 2.10508 9.60369
39.1514 2.19242 9.58582
39.368 2.29292 9.55426
39.5845 2.39342 9.5227
39.7885 2.54364 9.44247
39.982 2.69021 9.34888
40.2049 2.77755 9.33101
40.3994 2.94752 9.23024
40.6254 3.02827 9.21922
40.8033 3.20776 9.0914
41.0398 3.26877 9.11502
41.2426 3.41898 9.02069
41.4686 3.47635 9.03096
41.6851 3.60023 8.97811
41.8892 3.72707 8.91916
42.1057 3.82757 8.8876
42.2909 4.01728 8.76629
42.5064 4.11778 8.72063
42.6634 4.36674 8.5377
42.8862 4.45407 8.51983
43.084 4.59407 8.44719
43.2775 4.76403 8.33232
43.4815 4.89086 8.27338
43.6823 5.04766 8.1863
43.8633 5.24395 8.04404
44.0578 5.41392 7.94327
44.2231 5.64312 7.76678
44.379 5.89208 7.56975
44.5642 6.08179 7.44844
44.6218 6.641 7.2733
44.7169 6.33733 7.24456
46.8804 12.8096 1.65579
46.5906 12.8838 1.49449
47.1797 12.6922 1.85891
47.4758 12.5813 2.05518
47.7687 12.5005 2.22332
48.0417 12.4591 2.33629
48.2875 12.5003 2.38045
48.5354 12.535 2.41735
48.7771 12.5595 2.46185
49.0187 12.6073 2.48506
49.2478 12.6815 2.48089
49.4832 12.7425 2.49041
49.6997 12.843 2.45885
49.9287 12.9405 2.43339
50.1202 13.1171 2.32577
50.3116 13.2936 2.21815
50.5208 13.4073 2.1588
50.7341 13.5378 2.09911
50.913 13.7407 1.9641
51.0845 13.9801 1.78002
51.1996 14.3974 1.76351
51.2184 14.2985 1.51378
-33.9026 -11.0533 0.61707
-33.8107 -11.3036 0.538914
-34.0773 -11.3222 0.482212
-30.6812 -14.9898 5.02902
-31.0594 -14.8014 4.72577
-28.0822 -17.7339 8.44738
-28.28 -17.8738 8.52003
-27.7332 -17.8864 8.6962
-27.4635 -17.8744 8.75975
-27.1302 -17.9941 8.97433
-26.8699 -17.9624 9.01734
-26.6116 -17.9241 9.0676
-26.3075 -17.9845 9.20646
-25.9648 -18.1239 9.44158
-25.5553 -18.3782 9.81329
-25.2501 -18.4386 9.96625
-24.9741 -18.4398 10.0435
-24.6533 -18.5331 10.2307
-24.3449 -18.6001 10.3905
-23.9366 -18.8544 10.7481
-23.6751 -18.846 10.8265
-23.3011 -19.0279 11.1088
-23.0271 -19.0458 11.2146
-22.8336 -18.8993 11.121
-22.594 -18.8448 11.1515
-22.1574 -19.1583 11.5707
-21.9565 -19.0249 11.5049
-21.8256 -18.7467 11.2744
-21.6589 -18.5643 11.1546
-21.4873 -18.3716 11.013
-21.2008 -18.4159 11.1462
-20.7881 -18.6768 11.5248
-20.5528 -18.6158 11.5343
-20.3394 -18.5087 11.4959
-19.9592 -18.7037 11.7919
-19.6289 -18.8168 11.9996
-19.3842 -18.7755 12.0297
-19.1164 -18.7803 12.1218
-18.9061 -18.6667 12.0765
-18.6938 -18.5596 12.024
-18.471 -18.4723 12.0061
-18.488 -17.9314 11.4823
-18.5645 -17.2655 10.8284
-18.3803 -17.0992 10.7142
-18.1606 -17.0053 10.6895
-17.8773 -17.0196 10.7946
-17.5032 -17.2249 11.0981
-17.2272 -17.2494 11.1967
-16.9627 -17.2243 11.2606
-16.7273 -17.1633 11.2701
-16.4545 -17.1813 11.3618
-16.1492 -17.2417 11.5148
-15.8815 -17.2465 11.6069
-15.6692 -17.1394 11.5544
-15.462 -17.0192 11.5023
-15.1474 -17.0993 11.6758
-14.9183 -17.0252 11.6716
-14.7935 -16.7572 11.4487
-14.6207 -16.5645 11.3212
-14.3791 -16.5167 11.3445
-14.1001 -16.5244 11.4285
-13.9554 -16.2959 11.2608
-13.7576 -16.1559 11.1882
-13.5922 -15.9501 11.033
-13.385 -15.8298 10.9809
-13.134 -15.8018 11.0246
-12.8631 -15.8132 11.1235
-12.6122 -15.7617 11.146
-12.3174 -15.8257 11.2856
-12.0559 -15.8174 11.364
-11.7863 -15.8054 11.4276
-11.5279 -15.7905 11.4991
-11.2863 -15.7426 11.5223
-10.9978 -15.7701 11.6269
-10.7594 -15.7157 11.6433
-10.4979 -15.7074 11.7217
-10.2344 -15.7056 11.7928
-10.0334 -15.5722 11.727
-9.77618 -15.5573 11.7845
-9.53658 -15.5028 11.815
-9.318 -15.4089 11.7761
-9.09517 -15.3216 11.7583
-8.86193 -15.2306 11.7538
-8.62659 -15.1696 11.7633
-8.42366 -15.0428 11.6902
-8.20083 -14.9555 11.6724
-7.98113 -14.8615 11.6477
-7.72588 -14.84 11.7123
-7.49992 -14.7593 11.7013
-7.29273 -14.639 11.6492
-7.09606 -14.499 11.5625
-6.89827 -14.359 11.4898
-6.68482 -14.2519 11.4514
-6.47764 -14.1317 11.3993
-6.26107 -14.0312 11.3678
-6.03511 -13.9504 11.3568
-5.82792 -13.8302 11.3047
-5.62499 -13.7034 11.2316
-5.42407 -13.57 11.1658
-5.23565 -13.4102 11.0726
-5.0316 -13.2834 11.0137
-4.78061 -13.2553 11.0574
-4.61523 -13.0495 10.9022
-4.45175 -12.8604 10.7756
-4.24143 -12.7468 10.7303
-4.08544 -12.5212 10.5546
-3.87825 -12.401 10.5025
-3.68046 -12.261 10.4298
-3.53698 -12.0091 10.2267
-3.42792 -11.6848 9.94825
-3.29696 -11.4065 9.71773
-3.12532 -11.2139 9.57622
-2.94942 -11.0278 9.45566
-2.82785 -10.7298 9.2046
-2.62379 -10.603 9.14565
-2.426 -10.463 9.07301
-2.2262 -10.3296 8.99312
-2.04404 -10.1567 8.88624
-1.9037 -9.89821 8.67626
-1.86147 -9.43567 8.23994
-1.90061 -8.80199 7.6256
-1.77277 -8.51718 7.38824
-1.58123 -8.36401 7.3019
-1.32398 -8.34909 7.35935
-1.08551 -8.29467 7.37572
-0.825233 -8.26294 7.41872
-0.583629 -8.2151 7.44194
-0.360799 -8.12776 7.42407
-0.137969 -8.04042 7.4062
0.0848608 -7.95309 7.38834
0.346264 -7.92135 7.44544
0.584739 -7.86693 7.46181
0.807569 -7.77959 7.44394
1.0304 -7.69226 7.42607
1.27513 -7.651 7.45613
1.51048 -7.59 7.46565
1.73321 -7.47927 7.4265
1.96855 -7.41827 7.43602
2.17574 -7.29802 7.38392
2.41421 -7.2436 7.40029
2.64017 -7.16284 7.38927
2.863 -7.07551 7.3714
3.0826 -6.9582 7.3254
3.33672 -6.93669 7.376
3.57945 -6.88885 7.41331
3.79915 -6.79493 7.3886
4.04701 -6.76025 7.4255
4.24794 -6.62684 7.35971
4.48016 -6.55925 7.36238
4.70602 -6.45511 7.33008
4.96326 -6.44019 7.38753
5.208 -6.39893 7.41759
5.4277 -6.30501 7.39287
5.62863 -6.1716 7.32708
5.86397 -6.11059 7.3366
6.11809 -6.08908 7.3872
6.33143 -5.95861 7.32751
6.57617 -5.91735 7.35757
6.799 -5.83002 7.3397
6.99679 -5.69002 7.26706
7.21024 -5.58294 7.22865
7.4362 -5.50218 7.21763
7.65892 -5.39146 7.17848
7.90991 -5.36337 7.22223
8.12336 -5.25629 7.18382
8.30551 -5.08337 7.07695
8.5127 -4.96313 7.02485
8.76682 -4.94162 7.07545
8.99893 -4.85064 7.05684
9.20612 -4.73039 7.00474
9.4133 -4.61014 6.95264
9.63613 -4.52281 6.93477
9.8327 -4.35943 6.82675
10.0274 -4.21285 6.74726
10.2784 -4.18476 6.79101
10.5012 -4.09742 6.77314
10.7377 -4.03641 6.79676
10.9699 -3.96882 6.79943
11.2084 -3.9144 6.8158
11.4186 -3.77735 6.74926
11.6246 -3.65711 6.68306
11.8412 -3.5566 6.6515
12.0703 -3.48243 6.64733
12.3068 -3.42142 6.67095
12.5284 -3.31071 6.6177
12.7168 -3.15096 6.52452
12.9333 -3.05046 6.49296
13.1843 -3.02237 6.53671
13.404 -2.92845 6.512
13.6143 -2.81478 6.46674
13.8558 -2.74356 6.46867
14.0755 -2.64964 6.44396
14.2921 -2.54914 6.4124
14.5118 -2.45522 6.38768
14.7064 -2.28525 6.28691
14.9104 -2.15842 6.22796
15.1489 -2.104 6.24433
15.3718 -2.01666 6.22646
15.5915 -1.92274 6.20175
15.7849 -1.75278 6.08688
15.9827 -1.61279 6.01424
16.1805 -1.47279 5.9416
16.4126 -1.38181 5.92299
16.6073 -1.23523 5.8435
16.8395 -1.16765 5.84617
17.0487 -1.05399 5.78682
17.2745 -0.949846 5.75452
17.4786 -0.823014 5.69557
17.642 -0.610607 5.54761
17.8803 -0.532798 5.5427
18.0739 -0.386225 5.44911
18.2779 -0.259393 5.39016
18.4913 -0.128922 5.33047
18.6922 0.00449256 5.26468
18.8869 0.151073 5.18519
19.0521 0.380277 5.0087
19.3 0.414951 5.04561
19.4633 0.650745 4.87637
19.6223 0.893115 4.68619
19.7783 1.11868 4.51044
19.9217 1.39396 4.28602
20.0557 1.68899 4.04107
20.2096 1.94454 3.85129
20.4093 2.10133 3.75011
20.5913 2.29763 3.62195
20.788 2.43762 3.53522
20.9951 2.58126 3.46183
21.1647 2.7805 3.32757
21.3456 2.97679 3.18531
21.5151 3.19942 3.02977
21.6836 3.42204 2.86012
21.8489 3.62786 2.70492
22.056 3.77149 2.63153
22.215 4.01386 2.44135
22.4159 4.17066 2.35427
22.6011 4.33699 2.25424
22.8145 4.46746 2.19455
23.008 4.61404 2.10097
23.2057 4.77742 2.00704
23.3972 4.95397 1.89942
23.597 5.08738 1.81953
23.8291 5.17835 1.80092
23.9925 5.39076 1.65297
24.1608 5.63677 1.46204
24.3104 5.89889 1.25132
24.3911 6.32921 0.868681
24.5532 6.565 0.685345
24.7479 6.71158 0.605857
25.005 6.74989 0.642019
25.1453 7.03176 0.410756
24.4572 11.828 -4.06947
24.2187 11.7736 -4.08584
24.5303 11.6172 -4.18871
24.2375 11.6746 -4.33557
29.9489 1.24028 7.42815
29.6497 1.33431 7.24631
30.2982 1.01754 7.74082
30.6161 0.88402 7.96373
30.9247 0.770242 8.16611
31.2332 0.656465 8.36848
31.4811 0.69114 8.40539
31.7583 0.643189 8.5393
32.0093 0.671281 8.58305
32.2604 0.675985 8.64809
32.5314 0.641201 8.76831
32.7887 0.656127 8.82575
33.0471 0.647673 8.91858
33.3169 0.636268 9.00341
33.5585 0.684107 9.02663
33.8389 0.629575 9.16738
34.0712 0.673775 9.19134
34.3265 0.695291 9.25604
34.5807 0.693413 9.32792
34.8285 0.728087 9.36483
35.0933 0.706468 9.47135
35.3505 0.721394 9.5288
35.5922 0.745846 9.57329
35.8245 0.813434 9.57597
36.0891 0.815202 9.66121
36.3308 0.839654 9.7057
36.5693 0.894076 9.72207
36.7827 1.00116 9.68366
37.0149 1.06875 9.68633
37.2608 1.11001 9.73049
37.4775 1.18713 9.72022
37.7097 1.25471 9.72289
37.9325 1.34205 9.70502
38.1447 1.47251 9.63123
38.3613 1.57301 9.59967
38.5747 1.6801 9.56127
38.7913 1.7806 9.5297
39.0173 1.86135 9.51868
39.2307 1.96844 9.48028
39.4191 2.12818 9.3871
39.6607 2.17602 9.41031
39.8585 2.31602 9.33767
40.0363 2.51889 9.18857
40.2466 2.63256 9.14331
40.4568 2.76961 9.07677
40.6703 2.8767 9.03837
40.8587 3.03644 8.94518
41.071 3.14352 8.89268
41.3138 3.19136 8.92999
41.5229 3.30502 8.87064
41.7301 3.42527 8.81854
41.9592 3.49944 8.81437
42.1475 3.68258 8.6999
42.3547 3.80283 8.6478
42.5388 3.99253 8.51239
42.7365 4.15592 8.41846
42.9436 4.27617 8.36636
43.1508 4.39642 8.31426
43.3474 4.55979 8.20624
43.5358 4.71954 8.11306
43.7398 4.86976 8.03283
43.9207 5.06605 7.89057
44.1216 5.19946 7.82478
44.335 5.30655 7.78637
44.4846 5.59205 7.55436
44.6499 5.82126 7.37787
44.8131 6.05705 7.20863
46.9254 12.6346 1.49622
46.6837 12.6102 1.45172
47.2089 12.5735 1.64382
47.5206 12.4531 1.85304
47.7905 12.4183 1.95916
48.0866 12.3075 2.15543
48.3282 12.3553 2.17865
48.5698 12.4032 2.20186
48.8158 12.4211 2.2673
49.073 12.436 2.32475
49.3177 12.4772 2.35481
49.5543 12.5149 2.39971
49.7865 12.5825 2.40238
49.9769 12.759 2.28067
50.1839 12.9026 2.20728
50.3722 13.0858 2.09281
50.5876 13.2097 2.02587
50.7915 13.3599 1.94564
50.9924 13.5167 1.85856
51.167 13.7261 1.70261
51.3228 13.9985 1.4843
-30.4646 -14.8893 4.99746
-30.3896 -15.0833 4.84969
-30.8553 -14.734 4.37602
-28.0123 -17.9381 8.3213
-28.2382 -18.0188 8.33232
-27.7489 -17.9129 8.37116
-27.4061 -18.0524 8.60628
-27.0852 -18.1457 8.79347
-26.8031 -18.16 8.88441
-26.5802 -18.0727 8.86654
-26.3094 -18.0607 8.94419
-25.8948 -18.3281 9.3155
-25.4385 -18.6577 9.76863
-25.1364 -18.7116 9.91474
-24.8655 -18.723 10.0137
-24.6021 -18.6978 10.0635
-24.2719 -18.8109 10.2713
-23.8718 -19.0454 10.6224
-23.6427 -18.9713 10.6183
-23.3156 -19.0777 10.8191
-22.9865 -19.1908 11.0128
-22.7407 -19.1262 11.0357
-22.5564 -18.9833 10.9428
-22.1845 -19.1585 11.2324
-21.9523 -19.0909 11.235
-21.7587 -18.9444 11.1415
-21.5984 -18.7488 11.0079
-21.3975 -18.6153 10.9421
-21.1872 -18.5017 10.8969
-20.8287 -18.674 11.1662
-20.5235 -18.7344 11.3192
-20.2382 -18.7553 11.417
-19.9236 -18.8355 11.5905
-19.634 -18.8864 11.7305
-19.3986 -18.8254 11.74
-19.1446 -18.7805 11.7693
-18.9093 -18.7195 11.7789
-18.7146 -18.5729 11.6994
-18.5366 -18.4168 11.5928
-18.7404 -17.511 10.6581
-18.5754 -18.1843 11.4398
-18.6875 -17.0916 10.2777
-18.4366 -17.0635 10.3215
-18.2231 -16.9564 10.2831
-17.9054 -17.0432 10.4634
-17.5658 -17.176 10.6917
-17.2105 -17.3418 10.9542
-16.9626 -17.3071 10.9911
-16.6887 -17.3017 11.0756
-16.4252 -17.2999 11.1467
-16.1481 -17.3011 11.2381
-15.9003 -17.2664 11.275
-15.6399 -17.2581 11.3393
-15.439 -17.1247 11.2735
-15.1056 -17.2443 11.4881
-14.9047 -17.1109 11.4223
-14.783 -16.8363 11.1925
-14.6427 -16.5778 10.9825
-14.4104 -16.5103 10.9852
-14.1364 -16.5282 11.091
-13.9366 -16.3948 11.0111
-13.7858 -16.1561 10.8357
-13.586 -16.0227 10.7558
-13.3663 -15.9288 10.7311
-13.1173 -15.8941 10.7821
-12.8381 -15.9252 10.8875
-12.5485 -15.9527 11.0062
-12.2725 -15.9773 11.1048
-11.9767 -16.018 11.2372
-11.7195 -16.0031 11.2946
-11.4673 -15.975 11.3525
-11.2038 -15.9732 11.4236
-10.931 -15.9678 11.494
-10.6789 -15.9397 11.5519
-10.4436 -15.8787 11.5614
-10.202 -15.8309 11.5846
-9.95723 -15.7896 11.6147
-9.73127 -15.7088 11.6036
-9.51157 -15.6149 11.5789
-9.28874 -15.5276 11.561
-9.06904 -15.4337 11.5363
-8.81502 -15.3888 11.5657
-8.57542 -15.3343 11.5961
-8.35572 -15.2404 11.5714
-8.12663 -15.1663 11.5672
-7.91632 -15.0526 11.522
-7.68723 -14.9784 11.5178
-7.47804 -14.8648 11.4584
-7.26147 -14.7643 11.4269
-7.05742 -14.6374 11.3679
-6.82207 -14.5764 11.3775
-6.6274 -14.4298 11.298
-6.41083 -14.3293 11.2664
-6.18487 -14.2486 11.2554
-5.97768 -14.1283 11.2033
-5.7486 -14.0542 11.1991
-5.55393 -13.9076 11.1196
-5.35726 -13.7676 11.0329
-5.16885 -13.6079 10.9397
-4.98043 -13.4481 10.8465
-4.76073 -13.3542 10.8218
-4.56093 -13.2208 10.7419
-4.39119 -13.0449 10.6289
-4.19965 -12.8918 10.5426
-3.9956 -12.7649 10.4837
-3.80832 -12.6052 10.3764
-3.63555 -12.4125 10.249
-3.47643 -12.1936 10.0801
-3.36111 -11.8824 9.81532
-3.23015 -11.6042 9.58481
-3.09606 -11.3325 9.36113
-2.92642 -11.1333 9.22687
-2.75478 -10.9407 9.08536
-2.57263 -10.7677 8.97849
-2.36545 -10.6475 8.92639
-2.15939 -10.5272 8.86019
-1.98662 -10.3346 8.73277
-1.84002 -10.0893 8.53649
-1.75912 -9.70573 8.19642
-1.76341 -8.59635 7.11797
-1.84005 -8.98647 7.47898
-1.56249 -8.46293 7.05218
-1.31462 -8.42826 7.08908
-1.07302 -8.38042 7.1123
-0.80536 -8.36185 7.18309
-0.598175 -8.2416 7.13099
-0.369086 -8.16743 7.12682
-0.146256 -8.08009 7.10895
0.0828316 -8.00592 7.10478
0.361881 -8.01369 7.18887
0.584711 -7.92635 7.171
0.798154 -7.81927 7.13259
1.03663 -7.76484 7.14896
1.28249 -7.72358 7.19312
1.52722 -7.68232 7.22318
1.7656 -7.60451 7.21826
1.99155 -7.52376 7.20724
2.18935 -7.38376 7.1346
2.40905 -7.28985 7.10988
2.63501 -7.20909 7.09886
2.87975 -7.16784 7.12892
3.10873 -7.07028 7.10347
3.33156 -6.98294 7.0856
3.55439 -6.89561 7.06773
3.77722 -6.80827 7.04986
4.02821 -6.78018 7.09362
4.26356 -6.71917 7.10314
4.52071 -6.68086 7.1393
4.74666 -6.60011 7.12828
4.94133 -6.45353 7.04879
5.19658 -6.43201 7.11349
5.44757 -6.40392 7.15724
5.66727 -6.31 7.13253
5.87133 -6.18317 7.07358
6.11596 -6.11853 7.08236
6.35131 -6.05752 7.09188
6.57101 -5.9636 7.06716
6.81574 -5.92235 7.09722
7.00728 -5.76918 7.01089
7.21759 -5.65552 6.96563
7.44658 -5.55796 6.94017
7.66941 -5.47062 6.92231
7.89537 -5.38987 6.91129
8.10456 -5.27621 6.85194
8.37858 -5.29419 6.95771
8.56699 -5.13445 6.86453
8.80536 -5.05664 6.85961
9.04697 -5.0088 6.88283
9.2698 -4.92146 6.86496
9.47072 -4.78805 6.79917
9.66426 -4.64147 6.70558
9.88084 -4.54097 6.67402
10.1454 -4.51582 6.73797
10.3483 -4.38899 6.66493
10.5492 -4.25558 6.59914
10.7971 -4.2209 6.63604
10.9761 -4.04141 6.52232
11.2176 -3.97018 6.52425
11.4498 -3.9026 6.52692
11.6664 -3.8021 6.49536
11.8798 -3.69501 6.45695
12.0808 -3.5616 6.39116
12.3129 -3.47062 6.37255
12.5326 -3.3767 6.34783
12.723 -3.22355 6.2474
12.9458 -3.13621 6.22954
13.153 -3.01596 6.17744
13.3914 -2.93815 6.17252
13.6205 -2.86398 6.16834
13.8433 -2.77665 6.15048
14.0735 -2.70247 6.1604
14.3057 -2.63488 6.16307
14.5442 -2.58046 6.17944
14.7639 -2.48654 6.15473
14.9667 -2.33633 6.0604
15.1708 -2.2095 6.00145
15.3497 -2.00662 5.86644
15.5538 -1.87979 5.8075
15.7661 -1.77271 5.75499
15.9827 -1.67221 5.72343
16.2317 -1.63753 5.77444
16.4544 -1.5268 5.73528
16.6354 -1.3539 5.61431
16.8488 -1.24682 5.5759
17.0434 -1.07685 5.47513
17.2506 -0.9566 5.42303
17.4692 -0.862689 5.38422
17.6575 -0.679556 5.26976
17.8709 -0.572472 5.23135
18.0781 -0.452223 5.17925
18.3103 -0.384635 5.18192
18.5111 -0.227834 5.09484
18.7172 -0.107592 5.02864
18.9118 0.0623756 4.92787
19.1127 0.19579 4.86208
19.2999 0.378916 4.73352
19.4276 0.687112 4.47487
19.5522 1.00189 4.20937
19.6862 1.29692 3.96441
19.8495 1.53272 3.79517
20.0524 1.65954 3.72213
20.2345 1.85584 3.59397
20.4124 2.03533 3.46615
20.61 2.19871 3.37223
20.7796 2.42134 3.21668
20.9637 2.58766 3.10256
21.1458 2.78396 2.9744
21.3298 2.97367 2.83899
21.4901 3.19266 2.68419
