 -11.2448   -15.924  -3.19265
 -12.5879  -15.6937  -2.93703
 -12.6967  -15.6674   -2.9246
 -11.1201  -15.6279  -2.80709
 -11.2254  -15.6362    -2.805
 -11.3347  -15.6406  -2.80622
 -12.4699  -15.6892  -2.79764
 -15.1073  -16.6566  -3.23355
 -15.4096  -16.6506  -3.21729
 -10.3218  -16.4266  -2.89683
 -14.8807  -16.6439   -2.8998
 -12.4952  -15.9032  -2.52405
 -15.8413  -16.6971   -2.7086
 -11.1963  -15.7635  -2.14808
 -11.1449  -15.7818   -2.1464
 -11.0987  -15.9283  -2.13797
 -11.1269  -15.8217  -2.02241
 -10.1635  -16.4104  -2.21803
 -10.2415    -16.27   -2.0837
 -12.2073   -15.886  -1.29132
 -11.0879  -15.8016  -1.28899
 -10.8757  -16.1656   -1.3884
  -15.581  -16.6002 -0.992695
 -11.1881  -15.9769 -0.969884
 -11.7716  -15.9424 -0.780293
 -11.8501  -15.7517 -0.420913
 -11.4932  -15.9677 -0.183055
 -11.4466  -15.9819 -0.146973
 -13.2797  -15.7839  0.370396
 -11.2381  -15.9861 -0.033955
  -11.997  -13.6148   1.66468
 -11.9121  -13.6973   1.67392
 -11.9781  -16.3758  -4.07355
   -11.72  -16.3735  -4.04446
 -10.9988  -16.4727  -4.03245
 -11.7861  -16.3672  -4.02133
 -11.0908  -16.4693   -4.0223
 -11.3143  -16.5018  -4.02498
 -13.7106  -16.5893   -4.0235
   -9.955  -16.4211  -3.54059
  -10.022  -16.4173  -3.52275
 -9.90325  -16.4189  -3.51656
 -11.8568  -15.6695  -3.19194
 -10.1791  -16.4127  -3.37043
 -11.1248  -15.7887  -2.46933
  -12.296   -15.876  -2.03324
 -12.1702  -16.0017  -1.37088
 -10.9895  -15.8334  -1.32326
 -10.9227  -16.1685  -1.43216
 -13.8181  -16.0254  -0.77909
 -11.7479  -15.9614 -0.745263
  -11.243  -15.9824 -0.557441
 -15.5356  -16.6254  0.108851
 -11.6872  -15.7833 -0.273118
 -10.9621  -16.1358 -0.122744
 -11.3326  -15.6939  0.370032
  -11.507  -16.4614  -3.95979
 -10.5903  -16.4205  -3.75908
 -9.96635  -16.4724  -3.51607
 -12.4723  -15.7407  -2.93859
 -10.8847  -15.7234  -2.86758
 -9.87615  -16.4162  -2.74802
 -10.8244  -15.9839   -2.5194
 -10.4426  -15.8116  -2.14073
 -13.1433  -16.1063  -1.53079
 -14.9097  -16.6398  -1.32105
 -13.8006  -16.1429  -1.03057
  -11.806  -15.7586  -0.35666
   -11.01   -15.626  -2.88793
 -10.9411  -15.6726  -2.82987
  -10.151  -16.4141  -2.89655
 -10.8916  -15.9639   -2.5312
 -12.7345  -16.0016  -2.49574
   -11.06  -15.8131  -2.44923
 -10.1617  -16.4323   -2.7401
 -11.0477  -15.9153  -2.46046
  -11.073  -15.9059  -2.41363
 -11.5153  -15.7806   -2.2927
 -9.95879  -16.4215  -2.45202
  -11.243  -15.7886  -1.98984
 -12.2863  -15.9537  -1.98822
 -12.1539  -16.0232  -1.60566
 -11.5937  -15.9176  -1.29416
 -11.8053  -15.7588 -0.221781
  -13.541   -15.895  0.304279
 -11.8966  -15.7039  0.288596
 -12.2323  -16.5851  -4.06113
 -11.5768  -15.8762  -1.98284
 -13.1437  -16.1172  -1.99052
 -10.1737  -16.3776  -2.19574
  -10.999  -16.1128  -1.25236
 -13.9648  -16.1025 -0.725476
 -11.6687  -16.3538  -4.02134
 -10.8694  -15.9523  -2.54252
 -11.3719  -15.7723  -2.23129
 -11.2951  -16.4764  -4.02332
  -11.781  -16.4836  -4.01739
 -11.9087  -16.0879  -1.63085
 -12.8862  -16.0436  -1.53105
 -11.0214  -16.0875  -1.24109
 -12.1468  -16.0034  -1.63371
 -12.0739  -16.0553  -1.42389
 -11.8486  -15.9472 -0.460495
 -11.9887  -15.7744  -3.13347
 -10.3818  -16.1549  -1.93968
 -11.2238  -16.1811  -1.29044
 -15.4391  -16.6555  -4.36959
 -13.9178  -16.5987  -4.27484
 -13.8368  -16.5942  -4.22379
 -13.7991  -16.6074  -4.21409
 -12.1062  -16.4238  -4.16344
  -14.157  -16.6006  -3.76685
 -12.0098  -16.4276  -4.05569
 -11.7564  -16.3819   -4.0598
 -11.6135  -15.8723  -3.54359
 -15.4171  -16.6692   -3.2296
 -10.9489  -16.4645  -4.05591
 -15.4963   -16.643  -2.72312
 -15.3919  -16.6542  -2.75098
 -10.6649  -16.4501  -3.77277
 -15.4644  -16.6614  -2.69773
 -9.35386  -16.3907  -3.53003
 -13.1233  -15.9978  -2.07253
 -11.2331  -15.7432  -2.23756
 -11.2634  -15.7952  -2.09562
 -12.0972  -16.0092  -1.95075
  -11.098  -15.9352  -2.13857
 -10.3605  -16.4207  -2.71531
 -9.79734  -16.3956  -2.54974
 -9.90941  -16.4075  -2.43117
 -15.4693  -16.6389  0.022134
 -11.2963  -15.9902 -0.736262
 -11.1576   -15.987 -0.697289
 -11.6963  -15.8441 -0.379628
 -10.9313  -16.1558 -0.402066
  -12.224  -15.7476  0.510172
 -11.5628  -15.7146  0.510544
 -11.3704  -15.7026  0.493021
  -13.924  -16.5937  -4.22724
 -15.9043  -16.6715  -3.77442
 -15.0088  -16.6453  -3.54174
 -11.1408  -15.9074  -3.20487
 -15.5826  -16.6539  -2.69502
 -11.6506  -15.8243  -2.51663
 -12.2188  -15.8346  -2.26058
 -12.2736  -15.8268  -2.22973
 -11.1153  -15.7778  -2.23538
  -10.997  -15.9677  -2.28894
 -10.0992  -16.4114  -2.45657
 -15.4381  -16.6586 -0.652974
 -9.84519  -16.3983  -2.43037
 -11.5012   -15.979  -1.42214
 -12.4568  -16.0489 -0.975718
 -12.4034  -16.0404 -0.559828
  -11.197  -15.9895 -0.868571
 -11.6708  -15.8421 -0.269548
 -11.2724   -15.986  -0.04102
 -11.7803  -15.7256  0.370203
 -13.3249    -16.53  -4.34874
 -15.6428   -16.682  -3.77511
 -13.5494  -16.6035  -4.04295
 -11.2518  -16.4651  -4.05369
 -12.7594  -15.7498  -2.89598
 -11.2581  -16.4767  -3.81793
 -14.7191  -16.6483  -2.87909
 -10.7919  -16.4446  -3.55291
 -9.89911  -16.4186  -3.51474
 -10.3382  -16.4356  -2.89812
 -11.0608  -15.8999  -2.23161
 -11.8225  -16.0387 -0.999046
 -11.2618  -15.9703 -0.969549
 -11.7927   -15.826  -0.45449
 -11.7838  -16.0896 -0.591034
 -13.5002   -15.844  0.526206
 -11.3194  -15.9755 -0.487155
 -12.5533  -15.7321   -2.9375
 -11.8474  -16.0107  -1.21938
 -11.7512  -16.1554 -0.657597
 -13.2846  -15.8589  0.323899
 -11.6887  -15.8368 -0.289201
 -12.7166  -15.7674  0.361507
 -11.4503  -15.7003  0.456527
 -12.1004  -16.4617  -4.07549
 -11.3861  -16.4422  -4.12157
 -11.4207  -15.7229  -2.28679
 -10.5538  -15.9719   -1.9866
  -10.427  -15.9423  -1.96464
 -11.1307  -15.9882  -1.07419
 -12.7607  -16.5238   -4.2401
 -10.3833  -15.9831  -1.94485
 -11.0033  -16.1168  -1.23547
 -11.6023  -16.0654 -0.785518
 -11.8239  -16.0028  -1.15496
 -12.3491  -15.8965  -1.74322
 -14.5737  -16.6464  -4.90953
 -15.5976  -16.6609  -4.35981
 -15.4556  -16.6696  -4.38208
  -15.511  -16.6798  -4.34326
 -13.4948  -16.5846  -4.21005
 -13.4928  -16.5666  -4.15752
 -11.7313  -16.3677  -4.05892
 -11.6882   -16.375  -4.05645
  -15.759   -16.655  -1.27656
 -12.4068  -15.8612  -2.11441
 -13.9885  -16.0184  -1.01088
 -11.1504  -15.8123  -2.51967
 -10.2775  -16.4335  -3.80427
 -11.1065  -15.7524   -2.2503
  -11.184  -15.7697  -2.09097
 -15.3684  -16.6208  0.165866
 -13.3524  -15.7814  0.373909
 -10.1552   -16.429  -2.94306
 -12.6957  -15.7709  0.375953
 -11.1537  -15.9644  -1.04316
 -9.94535  -16.4064  -2.52782
 -10.8351  -16.1521  -1.39135
  -12.176  -15.9928 -0.042706
 -12.0258  -15.7316  0.492753
 -11.3703  -15.7027  0.492483
 -14.6565  -16.6609  -4.93965
 -13.9281  -16.5998   -4.1463
  -13.778  -16.5932  -4.22322
 -12.7691  -15.7348  -2.88742
 -12.5256  -15.6834  -2.95647
 -11.6404  -16.3632  -4.10728
 -11.5923  -16.3573  -4.10099
 -11.1753  -16.4639  -4.02572
 -11.9195  -15.8416  -2.53157
   -12.22  -15.8223  -2.26409
 -11.1331  -16.4846  -3.78428
  -12.341  -15.8351  -2.00012
 -12.7504  -14.0213   1.24512
 -12.2711  -14.0014  0.994051
 -10.0366   -16.413  -3.50446
 -9.95657   -16.423  -3.52881
 -9.99578  -16.4211   -3.4891
 -9.95732  -16.4256  -3.47352
 -10.2556  -16.4277  -2.87996
   -10.17  -16.4298  -2.88943
 -12.4412   -16.039 -0.559957
 -12.5007  -16.0527 -0.495002
 -13.0944   -15.772  0.379109
 -12.4115  -16.0547 -0.081161
 -11.1541  -15.9783 -0.922787
 -11.6738  -15.8626 -0.305828
 -11.2058  -16.0007 -0.610396
 -11.2635  -15.9785 -0.034046
 -10.5825  -16.1556  -0.79447
 -14.5626  -16.6201  -4.82114
 -12.5565  -15.6997  -2.92199
 -11.3869  -15.7931  -2.27272
 -15.4116  -16.6296  0.046954
 -11.0663  -15.9097  -2.24756
 -11.3077   -15.957 -0.979241
 -11.6568   -15.898 -0.322631
 -11.8076  -15.7218  0.390601
 -11.2331  -15.9869 -0.090944
 -11.4019  -15.6986  0.364484
 -11.3903  -15.6982  0.470491
 -13.3493  -16.5749  -4.29682
  -12.461   -15.693  -2.99393
 -11.2734  -15.7938  -3.42503
 -11.7459  -16.0515  -1.33273
 -9.98401  -16.3935  -2.25311
 -11.3076  -15.9875 -0.109136
 -11.8364  -15.9797  -1.30083
 -11.0808  -15.9516  -1.85776
 -13.2671  -16.1872  -1.39804
 -13.6495  -16.2999  -0.43961
 -10.4795   -15.957  -1.87804
 -10.8426  -16.1674 -0.704822
 -12.2936  -16.0352  -1.47065
 -10.3667  -15.9984  -1.96673
  -11.611  -16.0417 -0.706262
 -11.9004  -15.9387  -0.97881
 -11.8221  -15.9783 -0.635567
 -17.0533  -16.5016  0.657837
 -11.7532  -15.9019   -1.7455
 -10.8838  -16.1379  -2.44189
 -11.1045  -15.8785  -1.48596
 -15.3826  -16.6422   -2.7752
 -12.7669  -16.5594   -4.2653
 -12.2505  -15.8487  -2.27377
 -12.3042  -15.8552  -1.90052
 -13.3535  -15.7854  0.369668
 -13.2894  -15.7819  0.445458
 -12.6876  -15.7701  0.492975
 -11.2296  -16.4772  -4.02526
   -12.49  -16.0621 -0.466292
 -12.4549  -16.0629 -0.513396
  -12.398  -16.0444 -0.564874
 -11.1318  -15.7597  -2.21566
 -12.5237  -16.0511 -0.166099
 -12.1831  -15.9945 -0.034245
 -11.6754   -16.019 -0.771834
 -11.2173  -15.9818 -0.716033
 -11.3873  -15.9898 -0.195411
 -11.3694  -15.7027  0.496111
 -10.0828  -16.4132  -3.74001
  -11.212  -15.9816 -0.193717
 -10.1608  -16.4325  -2.94386
  -9.7427  -16.4015  -3.51739
 -9.94894  -16.4024  -2.52648
  -14.274  -16.6258  -4.41229
 -14.8209  -16.6373  -2.59832
 -12.3424  -14.0088   1.06119
 -13.0894  -16.0156  -2.19001
 -13.8035   -16.024 -0.772255
 -11.9644  -15.7667  -3.06211
 -13.8037   -15.796   0.42055
 -13.3546  -15.7905  0.469597
 -12.0645  -16.0066  -1.87879
 -12.3531  -16.0349 -0.705436
 -11.1113  -16.4398  -4.01129
 -12.4159  -16.0459 -0.083439
 -12.2538  -15.7374  0.540985
 -11.7174  -16.0727  -1.02973
 -11.3151    -15.97 -0.997171
 -11.1374  -15.9718 -0.992707
 -11.2395  -15.9799 -0.717182
  -11.349  -15.7049  0.445138
 -9.98446  -16.4165  -3.48238
 -9.94903  -16.4373  -3.51248
 -10.2585  -16.4107  -2.76845
 -10.2213  -16.4209  -2.86153
 -10.1832  -16.4208   -2.9053
 -10.5914  -16.1398 -0.810525
 -9.29867  -16.3844  -3.53949
 -9.26811  -16.3775  -3.56581
 -15.3547   -16.624  0.076486
 -11.5068  -15.9403  -3.39632
  -12.953  -16.2174  -1.15663
 -13.2613   -16.287 -0.751692
 -11.4144  -15.7647  -2.28422
  -12.334  -16.0382  -0.89756
 -12.3659   -16.042 -0.625021
 -11.4372  -15.9568  -1.52221
 -11.6583  -15.8938 -0.330049
 -11.2448  -15.9869 -0.088454
 -11.2597  -15.9787 -0.029002
   -9.998    -16.42  -3.56352
 -9.46274  -16.3749  -3.46964
 -13.6702   -16.113 -0.697622
 -11.5421  -16.4043   -4.1423
 -13.3179  -16.2919 -0.133217
 -11.2068  -15.7701  -2.17649
 -10.5098  -15.9494  -1.91766
 -11.1532  -15.9759 -0.390812
 -9.45906  -16.4008  -3.30388
 -18.4637  -16.1991  -4.78848
 -18.1819  -16.3519  -4.48592
 -18.1545  -16.4001  -4.48741
  -11.839  -16.0038  -1.20354
 -10.3927  -15.8861  -2.03163
 -13.8252  -16.0083 -0.727077
 -11.9233  -15.9138 -0.903571
 -11.5874  -16.0815 -0.938778
 -10.7168  -16.1399 -0.901201
 -12.2006       -16  -1.54775
 -10.5904  -16.4638  -2.81136
 -13.5705  -16.1082    -1.027
 -11.8487  -15.8538 -0.672012
 -11.7439  -16.0597  -1.17903
 -11.0107   -16.144  -1.23847
 -12.2491   -15.881  -1.28231
 -11.7714  -16.0485  -0.66159
 -12.3941  -15.8514  -3.02736
 -18.1717   -16.375  -4.48769
 -18.1677  -16.3945  -4.52638
 -17.0214  -16.6258  0.390415
 -17.0254   -16.633   0.05924
      -17  -16.6408 -0.014055
 -15.5885  -16.6806  -4.35209
 -15.0578   -16.647 -0.509668
  -14.093  -16.6125  -4.26989
 -12.5756  -16.0556 -0.443959
 -12.3947  -15.8813   -3.4638
 -12.2948  -15.8458  -1.88924
 -12.4873  -16.0524 -0.183586
 -12.4834  -16.0443 -0.573818
 -12.3751  -16.0412 -0.187068
 -12.3809  -16.0346  -0.56943
 -12.3156  -16.0395 -0.714146
 -11.7688  -15.7117  0.305756
 -12.7726  -16.5634  -4.26669
 -12.7443  -16.5649  -4.26486
 -11.8345   -15.898 -0.778382
 -11.5879   -15.928  -3.55078
 -11.4084  -15.9941 -0.960142
 -11.7754   -16.388  -4.08601
 -11.3163  -15.9978 -0.454489
 -11.2409  -15.9295  -3.25813
  -11.213  -15.9786 -0.572816
 -11.2154  -15.9824  -0.71384
 -11.2217  -15.9842 -0.843454
 -11.1182  -15.9729 -0.447581
 -10.8654   -16.157  -0.19599
 -10.5496   -15.944  -1.90958
 -10.6798  -16.1457 -0.809733
 -9.96052  -16.3963  -2.48163
 -9.71865  -16.4053  -2.90655
 -9.28907  -16.3746  -3.53734
  -17.029  -16.6305  0.308617
 -17.0278  -16.6356  0.182428
 -16.9969  -16.6461  0.065425
  -15.914  -16.6634  0.125961
 -15.3783  -16.6293  0.166361
 -15.3176  -16.6231  0.052292
 -13.4698  -15.7919  0.359695
 -13.1393  -15.9782  -2.20883
 -13.1203  -16.1074  -1.55598
 -12.3037  -15.8145   -2.2493
 -12.5341  -16.0552 -0.699096
 -12.4824  -16.0426 -0.626859
 -12.3781  -16.0411 -0.103668
 -12.3876  -16.0425 -0.778801
 -12.3515  -16.0434 -0.170639
  -12.365  -16.0504 -0.702081
 -12.7918  -16.5509  -4.24996
 -12.0668  -16.0095  -1.89393
 -11.7745  -15.7908  -3.01635
 -11.7657  -16.0236  -1.24632
 -11.5749  -15.8742   -3.5438
 -11.7925  -16.3986  -3.95848
 -11.3084  -15.9818 -0.625932
 -11.3239  -15.9929 -0.712341
 -11.3104  -15.9767 -0.906411
 -11.3092  -15.9856 -0.254073
 -11.1818  -15.9665  -1.01627
 -10.9398   -16.158 -0.115097
 -11.1268  -16.4703  -3.63334
   -9.984  -16.4145  -3.48439
 -18.1838   -16.308  -4.63414
 -16.9944  -16.6428  0.221595
 -15.4596  -16.6482 -0.715518
 -13.0865  -16.0269  -2.17806
 -12.4318  -16.0459 -0.113859
 -12.4349  -16.0465 -0.651307
 -11.4887  -15.9448  -3.39811
 -11.3447  -15.9873 -0.255869
 -11.1158  -15.8082  -1.88192
 -11.2074   -15.971 -0.627171
 -11.1269  -16.4648  -3.70068
 -11.8948  -15.9707 -0.900412
 -11.5785  -15.9405  -3.40771
  -11.525   -15.937  -3.43503
 -11.4676   -15.975  -1.36342
 -10.3406  -15.9083  -2.10511
 -9.50478  -16.3886  -3.35209
 -12.8557  -15.9999  -2.59067
 -11.8676  -15.7564 -0.399932
 -12.0445  -16.4131  -4.06911
 -11.6335  -16.0074  -1.08366
 -11.1563  -15.7304  -1.87968
 -13.2252  -16.1914  -1.38064
 -11.7596  -16.0981 -0.673018
 -11.6577  -16.1145 -0.922073
 -11.5002  -15.9745  -1.17183
 -11.1246  -15.8826  -1.97094
 -11.0773  -15.9529  -1.51409
 -14.1107  -16.1416  -1.14457
 -14.0421  -16.3384 -0.628998
 -11.9304  -15.7187  0.311002
 -12.3812  -16.0427 -0.039914
 -12.4922   -16.053 -0.451048
 -14.3954  -16.6256  -4.45002
 -14.2488  -16.6195  -4.43591
 -11.2878  -15.9888 -0.200067
 -11.3866  -15.9865 -0.716162
  -11.131  -15.9741 -0.713634
 -11.1818  -15.9587   -1.0235
 -11.7288  -15.7922   -3.0097
 -11.7471  -15.7893  -3.06723
 -11.1319  -15.7619  -2.18699
 -12.8016  -16.5534  -4.31931
  -11.268  -15.8285     -3.45
 -11.9404  -16.4008  -4.17137
 -11.9078  -16.3978  -4.10803
 -11.8075  -16.3812  -3.96865
 -11.7596   -16.379  -4.09351
  -10.936  -15.8996  -3.16425
 -9.71763     -16.4  -2.90663
 -11.8832  -16.0044  -1.17711
 -11.1816  -15.9788 -0.480637
 -11.2278  -15.7491  -2.23407
 -12.7941  -16.5437  -4.16081
 -11.3747  -16.4963   -3.8329
 -11.3753  -15.8103  -2.16544
 -10.8901  -16.1489 -0.897858
 -11.8857  -16.4011  -4.14014
 -11.1247  -16.4721  -3.62574
 -18.1715  -16.3803  -4.33972
 -18.1521   -16.366  -4.54674
 -18.1611  -16.4272  -4.46532
 -10.5554  -16.4261  -2.90363
 -9.47032  -16.3809  -3.38584
 -11.8509  -16.0489  -0.91189
 -11.8319  -16.0043  -1.20458
 -11.7835  -16.0469  -1.05153
 -11.7241  -16.0801 -0.904078
 -11.1456  -15.8405  -1.76944
 -11.0951  -15.8985  -1.57924
 -10.7344  -16.1012 -0.522472
 -12.3475  -15.8991  -1.70618
 -11.8204   -15.946 -0.656775
 -12.3036  -15.9467  -1.94498
 -10.7616  -15.9572    -2.166
  -12.015  -16.0084  -1.26907
 -13.4211  -16.0362  -2.39881
 -15.2828  -16.6381  0.025709
 -11.6597  -15.7034  0.379684
 -11.2518  -15.6893  0.382591
 -11.9871  -15.7469 -0.376927
 -11.7572  -15.7479 -0.352365
  -11.586  -16.0568 -0.381363
 -11.3055  -15.9866  -0.19651
 -11.3041   -15.979 -0.715909
 -10.6514  -16.1448 -0.826929
 -11.3889  -15.7585  -2.19734
 -11.1203  -15.8614  -2.06603
  -12.832  -16.5422  -4.23926
 -12.7792  -16.5646  -4.26704
 -10.1481  -16.4218  -2.93466
  -12.774  -15.7531  0.527315
 -11.7136  -15.7628 -0.302942
 -11.6811  -15.7986 -0.266989
 -12.2992   -15.882  -1.84158
 -11.7415  -15.7852  -3.06401
 -11.7724  -16.4056  -3.96141
 -13.2481  -15.7694  0.320649
 -11.6909  -15.7096  0.377474
 -11.6969  -15.7627 -0.259964
 -11.2487  -15.9834 -0.103371
 -11.3888  -15.7632  -2.22314
 -11.1848  -15.9446  -3.19278
 -10.3098  -16.4203  -2.97027
  -9.4452  -16.3926  -3.28829
 -11.6864  -16.0791 -0.975809
 -12.8077  -16.5475  -4.25909
 -11.9526  -16.4142   -4.0126
 -9.97173  -16.4237  -3.54328
 -11.1985  -15.8226  -1.64151
 -11.6728  -16.0542  -1.20244
 -11.7891  -15.9714  -0.62705
  -12.103  -16.0204  -1.83498
 -11.1785  -15.8803   -1.4558
 -11.9442  -16.0274  -1.29077
 -10.5922  -16.0162  -1.63032
 -10.5593  -15.8621  -2.23393
  -15.352  -16.6275  0.003812
 -12.8003  -15.7592  0.507564
 -15.2829   -16.636  0.023103
 -12.2752  -15.7483  0.335279
 -11.8987  -15.7208  0.325017
 -15.4847  -16.6716 -0.882362
 -11.6681  -15.7998 -0.255869
  -11.532  -15.8584 -0.216226
 -11.7266  -15.8247  -0.40664
  -18.721  -16.1841  -5.18372
 -13.0759  -15.8524  -2.86631
 -11.3906  -15.7642  -2.24084
 -11.3494  -15.7841  -2.22837
 -11.1316  -15.8339   -2.0967
 -11.1089  -15.8601   -2.0925
 -11.2028  -15.7732  -2.18799
 -11.1915  -15.7766  -2.23412
 -10.2613  -16.4272  -2.31474
  -12.778  -16.5629  -4.26726
 -11.9298  -16.4075  -4.06336
 -11.9918  -16.4127  -4.12091
 -11.9764  -16.3854  -4.14955
  -11.785  -16.3953  -4.03626
 -11.1585  -16.4755  -4.03562
 -11.9752  -15.7426 -0.361948
 -11.7782  -15.7293 -0.302577
 -11.6627  -15.8025  -0.23385
 -11.7141  -15.7539 -0.285247
  -11.799  -15.7663 -0.391619
 -13.8831  -16.6041  -2.90432
 -15.5765  -16.6587  -4.03199
  -10.357  -16.4314  -1.58278
 -11.0678  -15.9253  -3.15219
 -10.9261  -15.9351  -3.13609
 -11.0137  -15.8767  -3.24008
 -11.2481   -15.836  -3.48708
 -11.7965  -16.3704  -4.00648
 -11.9318   -16.406   -4.1063
 -11.8608  -15.7205 -0.350906
 -11.5536  -15.8435 -0.315748
  -11.862  -15.8974 -0.736594
 -11.1279  -15.9231  -3.17134
 -11.9694  -16.4635  -4.04428
 -11.7255  -16.3649  -4.17078
 -11.6705  -15.7655 -0.236871
 -11.5614  -15.9415 -0.265847
 -11.2879  -15.9778 -0.991694
 -10.1814  -16.4259  -2.24798
 -11.6276  -15.9278  -3.49893
 -11.1993    -15.91  -3.24539
 -11.8674   -16.436  -4.00153
 -9.96586  -16.4197  -3.54217
 -13.3553  -16.2799 -0.473387
 -11.1278   -15.878  -1.82978
 -10.5862  -16.3571  -2.90037
 -11.5142  -15.9369 -0.157418
 -11.7655  -15.7609 -0.331436
 -11.5266  -15.9719  -1.59831
 -10.3688  -15.9423  -1.40819
 -11.6354   -15.896 -0.163928
  -12.337  -16.0186  -1.00551
   -11.87  -16.0372 -0.885535
 -10.7685  -16.1829   -2.8645
 -13.6683  -15.7912  0.366149
 -13.2472  -15.7749  0.370028
 -12.3701  -15.7368  0.366383
 -15.5307  -16.6725 -0.070017
 -11.8592  -15.7498 -0.303071
  -11.501  -15.8842 -0.193371
 -11.6533  -15.7921 -0.252379
 -11.4827  -15.8969  -0.20124
 -11.7891   -15.767 -0.382691
 -11.7996  -15.9167 -0.733235
 -11.8303   -15.907 -0.757699
 -10.9315  -16.1512 -0.942673
 -12.1194  -16.0054  -1.92331
  -14.735  -16.6383  -2.87784
 -12.5387  -15.8513  -2.23664
 -12.9133   -16.027  -2.47259
 -11.1196  -15.8575  -1.81889
 -10.3625  -16.4243  -1.58617
 -18.4434  -16.1237  -4.72326
 -18.4899  -16.1405  -4.76226
 -10.2654  -16.4284  -1.59155
 -11.3518  -15.7877  -2.23118
 -10.2041  -16.4068  -2.26779
 -10.1288  -16.4131   -2.2478
 -10.0459  -16.4174  -2.23713
  -11.063  -15.9181  -3.12348
 -11.2491  -15.8384  -3.49266
 -11.9757  -16.3886  -4.06763
 -11.9242  -16.4061  -4.06126
 -11.9668  -16.4008  -4.10688
 -11.2536  -16.4818  -3.82149
 -11.6971  -16.3772  -4.04771
 -11.1583  -15.6868  0.342701
 -11.7287  -15.7596 -0.233115
 -11.8105  -15.7145 -0.279149
   -11.71   -15.763 -0.286267
 -11.7745  -15.7269  -0.32052
 -14.8262  -16.6442  -1.33281
 -15.0741  -16.6318   -2.2094
 -10.9106  -16.1539  -1.45919
 -18.1406  -16.3221  -4.52123
 -11.1141  -15.8793  -2.01167
 -11.1095  -15.8557  -2.06548
 -10.2556  -16.3489  -2.30007
 -10.2231  -16.4095  -2.29413
 -10.1072  -16.4097  -2.47098
 -11.3252  -15.9203  -3.21639
 -11.1458  -15.9262  -3.18334
 -11.0615  -15.9332  -3.15246
 -11.5299  -15.9539  -3.45454
 -12.9396  -16.5624   -4.3086
 -12.7902  -16.5208  -4.23453
 -10.6251  -16.4441   -3.2097
 -12.0838  -16.4803  -4.11103
 -11.8375  -16.3955  -4.03266
 -11.9189   -16.404  -4.10652
 -10.1715  -16.4216  -3.37052
 -15.2451  -16.6653  0.280172
 -11.6162  -15.8962 -0.153959
  -11.815  -15.7276 -0.310935
 -11.7397  -15.7832 -0.345942
 -11.7445  -15.8159 -0.380983
  -11.683  -15.8817 -0.375488
 -11.7853  -15.9483 -0.784731
 -10.6684  -16.1463 -0.799285
 -12.2448  -16.0199  -1.97183
 -11.1558  -15.9138  -2.01042
 -11.3803  -15.7765  -2.20133
 -11.0845  -15.8484  -2.17538
 -11.0513  -15.9358  -2.30873
  -11.079  -15.8379   -2.3211
 -11.0904  -15.8574  -2.38413
 -10.1349  -16.3897  -2.22345
 -11.7254  -15.7181  0.298079
 -13.3425  -16.2662 -0.460184
 -13.7689    -16.01 -0.919261
 -12.0335  -15.9917  -1.27468
 -12.3093  -15.9532  -2.07804
 -13.2645  -15.7346  0.316555
  -13.082  -15.7555  0.310642
 -13.6921  -16.0688  0.182081
 -11.8057  -15.7146  0.317243
 -13.4157  -16.2872 -0.213585
 -10.8034  -16.1471 -0.377158
 -11.7309  -16.0141  -1.65572
 -18.1714  -16.2696  -4.49451
  -18.102  -16.4357  -4.47316
 -10.9985    -15.57  -2.90496
  -10.624  -16.3547  -2.82626
 -12.0647  -15.7892 -0.216224
 -11.4908   -16.079 -0.857898
 -10.9152  -16.0761  -1.35497
 -10.5009  -16.4425    -2.813
   -11.99  -15.7204   0.37154
 -10.8595  -16.1724  -1.15882
 -11.6711   -16.097 -0.611248
 -11.8731  -15.9361 -0.784415
 -11.2002  -15.9542  -1.44145
 -10.4243  -15.9408  -1.35937
 -11.7113  -15.8781 -0.353553
 -10.5061  -16.4358  -2.88715
 -9.81034  -16.4014   -2.4277
  -10.242  -16.2856  -2.09121
 -10.8996  -16.1659  -1.38842
 -10.6165  -16.1181  -1.18362
 -11.8598  -15.7424 -0.391862
  -11.716   -15.812  -0.37447
 -13.5146  -16.2873  -0.42911
 -11.6895  -15.7855  -0.27925
 -11.8451  -15.7099 -0.284954
 -11.6629  -15.8346 -0.263304
  -11.471  -15.9492 -0.176388
 -13.8822  -16.1389 -0.118989
 -16.4364  -15.2448   1.61241
 -11.9637  -16.3867  -4.14571
 -11.8161  -16.3876  -4.10415
 -10.0389  -16.4582  -3.51106
 -11.0465  -15.9029  -3.21028
 -10.7808  -16.4077  -3.20478
 -10.0096  -16.4158  -2.75522
 -11.5172  -15.8051  -2.27376
 -11.2333  -15.7866  -2.15263
   -11.85  -15.9757  -2.08224
 -11.8375  -15.9873  -1.31012
 -11.7977  -16.0678 -0.580651
 -11.6751  -15.9018 -0.374538
 -11.6293  -15.8402 -0.277803
 -11.6928  -15.7794 -0.246707
 -12.0554  -15.8605 -0.202656
 -11.5536  -15.9145 -0.132227
 -14.0514  -16.1143  0.131056
 -15.5763  -16.6347  0.164191
 -11.3019  -15.8159  0.263483
 -12.1692  -15.7496  0.335018
 -11.8476  -16.3676   -4.0292
 -9.80059  -16.4258  -2.71558
 -18.1153   -16.235  -4.37201
 -11.1905  -15.8277  -2.43752
 -12.4534  -15.9114    -2.047
 -12.3328  -15.9448  -2.00995
 -11.0425  -15.8562  -1.28662
 -12.2915  -15.8723  -1.29778
 -11.6985  -15.8874 -0.350523
 -14.0311  -16.1176  0.108091
 -13.7354  -16.0805  0.154298
 -13.2017  -15.7992  0.339331
 -12.0273  -15.7346  0.348766
 -14.0286  -15.7483  0.649264
 -13.1717  -15.6027  0.651657
 -11.2324  -15.8041  -2.52049
 -11.0642  -15.8847  -2.42997
 -12.3184  -15.9849  -2.12477
 -11.8418   -16.025  -1.15745
 -11.7527  -15.9552 -0.714608
   -11.74  -15.7818 -0.316828
 -11.4968  -15.9754 -0.109542
 -10.9959  -16.0295  0.085262
 -12.0877  -15.9567  -1.28465
 -11.8819  -16.0267  -1.26941
 -13.8004  -16.1328 -0.981785
 -11.8689  -15.8221 -0.366042
 -13.3814  -16.2781 -0.413052
 -11.4964  -15.6395  0.653143
 -11.2296  -15.7934  -2.14305
 -11.1866  -15.9635  -1.40687
 -12.3196  -16.0819   -1.2689
 -11.5252  -16.0142  -0.78208
 -11.4223   -15.995 -0.721928
 -11.2959  -15.7733  -2.27158
 -11.0474  -16.0532  -1.31345
 -11.0972  -16.0398  -1.26798
 -10.4002  -16.2161  -2.92373
 -11.8267  -15.9862  -0.13686
 -11.6854  -15.6268  -3.07734
 -11.3285  -16.1192 -0.202945
 -11.7884  -16.3864  -4.00533
 -15.6801  -16.6883  -4.37197
 -18.1433  -16.2853  -4.38767
  -11.535  -15.6537  -2.80612
 -10.4811  -16.4322  -2.87229
 -15.4752  -16.6824  -2.91341
 -12.3259  -15.8634  -2.00457
 -10.1405  -16.4151  -1.88669
 -10.6347  -16.1649  -1.25151
 -10.6318  -16.1498 -0.842083
 -11.7539  -15.7234 -0.271151
 -11.6852  -15.7739 -0.249051
 -11.4731  -15.9457 -0.179025
 -10.9067  -16.1708 -0.133038
 -16.4778  -14.9953   1.60197
 -12.8259  -16.5239   -4.2314
 -11.4894  -16.4518  -4.01961
 -9.63795  -16.3984  -3.23048
 -10.0744  -16.4254  -3.20069
  -12.721  -15.6719  -2.90714
 -12.5428  -15.8809  -2.17256
 -11.1254  -15.8251  -2.02151
  -12.213   -15.887  -1.28941
 -11.7427   -15.953 -0.747702
 -11.7785  -15.9455 -0.478595
 -11.6902   -15.774 -0.272973
 -11.7098   -15.789 -0.189458
  -15.243  -16.6362  0.063067
 -11.4505  -15.9517 -0.144384
 -12.0038  -13.6379   1.66667
  -10.248  -16.4338  -3.79741
 -9.38125  -16.4061  -3.49865
 -10.8585  -15.7327  -2.82319
 -10.8328  -15.9895  -2.51721
 -10.8419  -15.9374  -2.47764
   -10.77  -15.9542   -2.4067
 -11.0339  -15.9034  -2.38105
 -11.1386   -15.809  -1.98798
  -15.497  -16.6639  -1.83386
 -13.8323   -16.027  -1.02292
 -13.9807  -16.0538 -0.986653
 -11.7422  -16.0457 -0.826356
 -11.8771  -15.7263 -0.365704
 -11.5057  -15.9038 -0.261043
 -13.9466  -16.0787  0.073529
 -11.4779  -15.9663 -0.110818
 -9.33104  -16.5139  -3.59398
 -11.0504  -15.8004  -2.44532
 -11.2056  -15.7782  -2.41885
 -10.9781  -15.8709  -2.44804
 -11.1111  -15.8694   -2.4309
 -11.0709  -15.8842  -2.40126
 -11.7401  -15.9754 -0.719255
 -11.5245    -15.87 -0.217952
 -11.4799  -15.9074  -0.20932
  -11.847  -15.7141  0.322206
 -9.99759  -16.4199  -2.75864
 -11.1043  -15.8569  -2.52453
 -11.8667  -16.1048  -1.33304
 -11.0213  -16.1321  -1.26415
 -11.7667  -15.9361  -0.74103
 -15.3684  -16.6049  0.074658
 -13.4465  -15.8457  0.308792
 -13.2092  -15.7735  0.312109
  -11.208  -15.9664  -1.41485
 -11.2785  -16.0285 -0.107513
 -11.8774   -15.681 -0.251861
 -11.8397  -15.7551  -2.21779
 -11.5851  -15.9541  -2.62819
 -11.1478  -15.6154     -2.92
 -10.1234  -16.4212  -3.48182
 -9.29402  -16.3823   -3.5315
 -14.5594  -16.6173  -2.53057
 -12.1688  -15.9253  -1.29391
 -10.6644   -16.181  -1.25569
 -15.2959  -16.6921  0.057514
 -11.4815  -15.9584 -0.182519
 -12.0002  -13.6241   1.66574
 -11.9936  -13.5518   1.68557
 -18.1404   -16.309  -4.42669
 -14.9718   -16.699  -4.25484
  -11.556   -15.958   -3.3404
 -12.5823  -15.6915  -2.94001
 -10.0602  -16.4265  -3.50993
 -10.0999  -16.4328   -3.2264
 -9.96206  -16.4164  -3.21762
 -9.95133  -16.3818  -3.18283
 -14.3927  -16.6752  -2.55027
 -12.2657   -15.932  -1.33912
 -14.0074  -16.0665 -0.995152
 -11.2682  -15.9838 -0.974985
 -11.7103  -15.9682 -0.754177
 -11.8023   -15.967 -0.545628
 -11.8816  -15.7186 -0.374333
   -11.69  -15.8193 -0.280415
 -11.4963  -15.9555 -0.161913
 -11.3474  -15.7007  0.371412
 -13.6922  -16.5728  -4.63277
 -10.4167   -16.476  -3.78385
 -12.4867  -15.7263  -2.95612
  -12.736  -15.6874  -2.89852
 -11.2879  -15.5844  -2.92721
 -10.9519  -15.5253  -2.79312
 -11.2142  -15.7853  -2.51016
 -14.8527  -16.6135  -2.43522
 -11.0741  -15.9537  -2.21686
  -12.871  -16.6275  -4.07741
 -13.7687  -16.0668   -1.0534
 -11.7088  -16.0038 -0.807826
 -11.7288  -16.0023 -0.725207
 -13.8067  -15.7597  0.393128
 -11.1563   -15.719  0.387702
  -9.7622  -16.4094  -3.48017
 -10.9338  -15.6369  -2.86254
 -11.0671  -15.8777  -2.47506
  -11.205  -15.8363  -2.16899
 -11.8494  -15.9266  -2.04164
 -11.8692  -16.0091  -1.63464
 -11.7419  -15.9894 -0.756714
 -11.4401  -16.5408   -4.0554
 -12.3282  -15.9929 -0.918425
 -12.0248  -15.8996 -0.690373
 -10.4863  -16.5779  -2.84392
 -12.2409   -15.941   -2.3616
 -12.4857  -16.0064  -1.78541
 -11.8493  -15.9165 -0.460333
 -14.9825  -16.6696  -3.24443
 -11.2172  -15.8979  -3.18846
 -9.95393  -16.4212  -3.52586
 -10.0037  -16.4136  -3.49682
 -9.44704   -16.382  -3.49252
 -11.2589  -15.8168  -2.07285
 -11.6982  -15.9922 -0.768471
 -11.3772  -15.6998  0.373308
 -13.2738  -16.5674  -4.26029
 -12.5555  -16.5818  -4.39154
 -11.2671  -16.4781  -4.04863
 -12.9675  -15.8045  -2.84974
 -10.5276  -16.4335  -3.76883
 -12.2253  -15.8475  -2.26735
 -9.95131  -16.4243  -3.48232
 -11.1796  -15.8218  -2.16093
 -11.0625  -15.9023  -2.22894
 -11.0639  -15.9432  -2.23033
 -11.9504   -16.013  -1.71924
  -15.528  -16.6715  0.221669
 -13.1078  -15.7938  0.385007
 -12.0715  -13.6549    1.6723
 -13.3303  -16.5588  -4.31732
 -12.5119  -16.5741  -4.05285
 -11.7033  -16.3862  -4.04925
 -11.3316   -16.473  -4.01081
 -9.80545  -16.4101  -3.52096
 -12.1128  -16.0665  -1.06489
 -11.8511   -16.009 -0.926998
  -13.518   -15.781  0.544113
 -12.8057   -16.577  -4.27557
 -13.1254  -16.1059   -1.5551
 -11.8731  -15.9275 -0.906862
 -11.7673  -15.9009 -0.597739
 -11.6598  -16.1373 -0.638132
 -11.8552  -15.7385  -3.05719
 -10.1634  -16.4269  -2.89563
 -12.0833  -16.0445  -1.07442
 -11.6948  -16.0118 -0.784386
 -12.8871  -15.7741  0.526196
 -10.6161  -16.1431 -0.827358
 -10.8699   -16.167 -0.139328
 -12.5682  -15.7099  -2.92781
 -11.3123  -16.4884  -4.02026
 -12.2519  -16.0176  -1.87214
 -11.0916  -15.8096  -2.16364
 -9.89625  -16.4097  -3.50973
 -12.3635  -16.0459 -0.872616
 -11.8926  -15.9794  -1.08115
 -12.4893  -16.0448 -0.709184
 -11.8727  -15.9544 -0.967223
  -11.801  -16.0445 -0.840883
 -11.7176  -15.8979 -0.404571
 -11.1579  -15.9829 -0.917603
 -11.1869  -15.9869 -0.357089
 -10.7714  -16.1517 -0.774337
 -11.1573  -15.6953  0.390838
 -12.9333  -16.0489  -2.07599
 -11.0941  -15.8548  -2.16651
 -11.7744  -16.0792   -1.0472
 -12.9724  -16.2576 -0.360325
 -10.7847  -16.1301  -1.44599
 -12.2934  -15.7153  0.603664
 -18.1925  -16.3568  -4.48939
 -12.4544  -15.7067  -3.00959
 -12.1275  -16.5021  -4.13157
 -11.9098   -15.765  -3.02974
 -13.2249  -15.9637  -2.19987
  -9.4595   -16.387  -3.48874
 -11.8028   -16.031  -1.09056
 -11.8701  -16.0166 -0.964605
 -11.6907  -16.0362 -0.764933
 -11.1142  -15.9682   -1.0816
 -18.1475  -16.3774  -4.43281
 -12.5886  -15.6681  -2.97862
 -13.2026   -16.011  -2.11953
 -13.2424   -16.294 -0.830927
 -13.6393  -16.2234 -0.319893
 -11.8955  -15.9516 -0.999393
 -11.7967  -15.9166  -0.62264
 -11.8744   -15.931 -0.892921
 -14.3729  -16.6102  -4.03696
   -14.82  -16.6372  -2.59805
 -13.1284   -16.035  -2.11396
 -11.5581  -15.9445  -3.33889
 -15.4905  -16.6254  0.199079
 -15.3275  -16.6241  0.099002
 -15.4719  -16.6294  0.289076
 -12.0615    -16.03  -2.11134
 -13.3445  -15.7889  0.467021
 -13.1636  -16.3014  -0.42115
  -12.497  -16.0581  -0.18262
 -12.4625  -15.7529  0.388947
 -9.99648  -16.4197  -3.55401
 -9.95169   -16.422  -3.53233
 -9.94214  -16.4345  -3.51409
 -9.89783  -16.4074  -3.45598
 -10.2178  -16.4169  -2.85515
 -11.1553  -15.9926 -0.182929
 -11.2314  -15.9898 -0.041875
 -10.8681  -16.1721 -0.144272
 -13.0834  -16.0151  -2.18223
 -15.4779  -16.6489 -0.690646
 -11.5647  -16.3512  -4.15983
 -11.1927  -15.9325   -3.2586
 -11.1609  -15.8097  -2.55118
  -13.351  -16.2931 -0.585135
 -13.5154  -15.7834  0.523949
 -13.3185  -16.2879 -0.128927
 -12.3667  -16.0455 -0.626138
  -11.891  -16.0001  -1.11158
 -10.2161  -16.4114  -2.81875
 -11.7636  -15.7167  0.308291
 -11.2028  -15.9933 -0.624317
 -9.27057  -16.3734  -3.55624
 -11.2474  -15.9864 -0.319773
 -11.1977  -15.9938  -0.10667
 -13.7879  -16.0295 -0.852561
 -12.3275  -15.9949  -1.79111
 -11.7516  -15.9861  -1.79782
 -11.0907  -15.7709  -2.20399
 -13.3958  -16.2631 -0.207092
 -11.8761  -15.9679   -1.0378
 -11.8123  -16.0122  -0.77164
 -10.5002  -15.9495  -1.92638
  -11.182  -15.9724  -1.01545
 -11.2414  -15.9772 -0.795014
 -9.46569  -16.3825  -3.47903
 -11.1654  -15.9767 -0.373894
  -18.475  -16.2111  -4.80727
 -18.1812  -16.3573  -4.48101
 -12.1974  -16.0254  -1.98335
 -11.8151   -16.032  -1.08407
 -11.8736  -15.9862 -0.944801
 -11.9633  -15.7799 -0.415423
 -11.6729  -16.0435 -0.789701
 -11.5068  -15.9786 -0.236023
 -12.0726  -15.9499 -0.896267
 -13.7606  -16.1243   -1.0501
 -11.5639  -15.8389  -2.14579
 -11.7162  -16.0236  -1.25838
 -12.2685  -16.0132  -2.20733
 -11.7104  -15.8705   -1.7586
 -17.0248  -16.6346  0.212117
 -15.7869  -16.6707  -1.28251
 -15.4903  -16.6416  0.074267
 -13.4781   -16.564  -4.19641
 -11.4137  -15.7634  -2.28085
 -12.3878  -16.0338 -0.568464
 -11.7711   -15.718  0.306922
 -11.3186   -16.005 -0.460141
 -11.2252  -15.9841 -0.565462
 -10.0855  -16.4171  -3.57744
 -10.8672  -16.1759 -0.146035
 -9.27136  -16.3791  -3.56908
 -14.4468  -16.6153  -3.63762
  -11.532  -15.9217  -3.49062
 -11.8356  -16.3901  -3.96845
 -11.7114  -16.3847  -4.12568
  -12.915  -16.2496 -0.407409
 -11.2026  -15.9577  -1.07327
 -10.6937  -16.4493  -3.56006
 -11.1844  -15.9777  -0.62971
 -11.1455   -15.986 -0.409547
 -11.1735  -15.9744 -0.116012
 -9.90658   -16.408  -3.44612
 -9.30178  -16.3806  -3.58699
 -18.1886  -16.3504  -4.50742
 -12.5045  -15.8716   -2.1395
  -13.291  -16.2819  -1.09299
 -13.3732  -16.2455 -0.208495
 -11.3822  -15.7724  -2.24524
 -11.2365  -15.8176  -2.14069
 -9.81967   -16.405  -3.57326
 -11.5735  -16.3654  -4.02894
 -11.8763  -15.9738   -1.0352
  -11.825  -16.0062  -1.13881
 -11.0764  -15.9423  -2.00992
 -13.4005  -16.1009  -1.31035
 -12.3101  -15.9992  -1.98119
 -11.7326   -16.058 -0.891377
 -11.4734  -15.9706  -1.16983
 -11.5756  -16.0482 -0.942201
 -13.5563  -16.1122  -1.05114
 -11.5691  -16.0398 -0.949686
 -11.6251   -16.089 -0.679354
 -10.9532  -16.0064    -2.219
 -11.9081  -16.0824   -1.8795
 -11.0178  -16.1531  -1.22251
 -12.0293  -16.0427  -1.42273
 -17.0258  -16.6303  0.313303
 -17.0253  -16.6329  0.055313
 -16.9995  -16.6413 -0.050406
 -16.9989  -16.6486  0.066317
 -12.3288  -15.8576  -2.06292
 -12.5689  -16.0453 -0.439522
 -12.5603  -16.0529 -0.183943
 -12.4901  -16.0482  -0.71441
 -12.3808   -16.034  -0.56953
 -12.3207  -16.0512 -0.939263
 -11.9054   -15.918 -0.939642
 -11.3856  -15.9918 -0.192136
 -11.2092  -15.9735 -0.633434
 -11.2176  -15.9876 -0.328303
 -11.1704  -15.9811 -0.172898
 -10.4049  -15.8645  -2.14689
 -9.92048  -16.4098  -3.43343
 -18.1827  -16.3114  -4.65598
 -18.2056  -16.3859  -4.68962
 -17.0386  -16.6415  0.182143
 -16.9998   -16.643   0.35752
 -15.4649  -16.6551 -0.726542
 -11.3921  -15.9882 -0.704268
 -11.2097  -15.9766 -0.906622
 -10.9426  -16.1576  -0.11287
 -11.1297  -16.4695  -3.60401
 -9.94446  -16.4156  -3.42331
 -12.5855  -16.0137  -1.44326
 -11.4798  -15.9847  -1.55156
 -11.1221  -15.9301  -3.27201
 -11.1659  -15.9766 -0.380079
 -11.1264  -15.9735 -0.553197
 -9.50161  -16.3876  -3.34953
 -13.2937  -16.2727 -0.957542
  -11.413  -15.9627  -1.00868
 -10.5817  -16.4283  -3.05962
 -13.1521  -16.0558  -1.69434
  -12.063   -15.953 -0.922493
 -11.9235  -15.9184 -0.888335
 -10.5618  -15.9763  -1.96002
 -13.1046  -16.0959  -1.68939
 -11.5198  -15.9989   -1.1975
 -11.8768  -15.9418  -1.32721
 -12.2202  -16.0621   -1.7261
 -17.0286  -16.6281  0.285742
 -17.0221   -16.637  0.169955
 -18.1675  -16.3989  -4.64061
 -15.4492  -16.6026  0.205833
 -15.4125  -16.6295  0.089186
 -15.4612   -16.659 -0.719009
 -11.8708  -15.9966  -1.17306
 -11.3933  -15.9883 -0.441635
 -11.2018    -15.98 -0.191234
  -11.185  -15.9907 -0.172669
 -11.1728  -15.9741  -0.96493
 -11.8453  -15.9184 -0.876543
  -11.084  -15.8926  -2.23486
 -18.1736  -16.3768  -4.33776
 -11.7717  -16.0663 -0.629684
  -11.429  -15.9961 -0.541913
 -10.5764  -16.4461  -2.92777
 -10.2053  -16.3988  -2.85549
 -18.1605  -16.3642  -4.57564
  -11.411  -15.7964  -2.13203
 -11.8374  -15.9469 -0.683908
 -11.7252  -16.0805 -0.897081
 -11.8012  -16.0204  -1.35159
 -13.2215  -16.0943  -1.73899
 -12.3372  -15.8869  -1.70811
 -11.7886  -16.0497  -1.06128
  -10.525  -15.9082  -1.94774
 -10.5157    -16.43  -3.01172
 -12.0857    -15.97  -1.17326
 -11.6529  -16.0024 -0.658546
 -10.4718  -15.9261  -1.68838
 -11.8321  -15.9506  -1.43359
 -15.4598  -16.6241  0.071304
 -12.3751   -16.042 -0.034289
 -11.7023  -16.0781 -0.455105
 -11.1074  -15.9296  -3.15463
 -12.0271  -16.3935  -4.17167
 -9.74396  -16.4156  -2.94442
 -15.5834  -16.6651   -2.4535
 -11.4351  -15.8054  -2.17647
 -12.7761  -16.5568   -4.2722
 -9.45875  -16.4005  -3.30344
 -18.1639  -16.3668  -4.56943
 -11.9973  -16.4621  -4.05514
 -9.51883  -16.3851  -3.36433
 -12.3597  -15.8744  -1.65312
   -12.32  -15.7996  -1.90135
 -12.3438  -15.9324  -1.77277
  -11.162  -15.7998   -1.6417
 -11.2009  -15.8949  -3.34869
 -11.9159  -16.0484 -0.658002
 -11.9193  -16.1122 -0.629593
 -11.6826  -16.0909  -0.47661
 -10.9125  -16.1514 -0.927171
 -11.5906   -15.953  -3.41312
 -9.73075   -16.413  -2.92275
 -12.7766  -15.7583  0.527738
 -11.3059  -15.9483  -3.22989
 -11.8933  -15.9973  -1.94414
 -11.0396  -15.9255  -3.19297
 -11.8182  -15.9482  -0.76882
 -10.8177  -16.0052  -2.06687
 -11.1727  -15.9015  -3.29943
 -12.3709  -15.8778  -1.65191
 -12.3747  -15.9368  -1.72821
  -11.589  -16.0696 -0.866394
 -11.8008  -16.0392  -1.08932
 -11.7201  -16.1177   -1.0206
 -12.3246   -15.915  -1.77977
 -11.6567  -15.9993  -1.81195
 -11.1873  -15.8174  -1.65141
 -10.6024  -16.2294  -2.79323
 -10.6101  -16.0101  -1.67255
 -11.4934  -15.7002  0.507052
 -11.9027  -15.6651 -0.364187
 -11.7257   -15.736 -0.255405
 -11.0163  -15.8757  -3.24187
 -13.8239  -16.0522  -0.89918
 -11.6517  -15.8175 -0.264492
 -11.5264  -15.8783  -0.23784
 -11.8141  -16.0537  -1.01966
 -11.0899  -15.8989  -3.14664
 -11.2937  -15.8556  -3.46237
 -10.9543  -15.8995  -3.17364
 -9.52683  -16.3888  -3.49276
 -10.1805  -16.4134   -2.2495
 -12.0511  -16.0409  -1.45098
 -11.8889  -16.4407  -4.01728
 -11.7598  -15.7547 -0.320187
 -11.2519  -15.9225 -0.195615
 -10.3089  -15.9348  -2.18184
 -11.7556  -16.0635 -0.958009
  -13.069  -15.7634    -2.903
 -13.1129  -15.9914   -2.7209
 -15.3324  -16.6314  0.046616
 -15.4943  -16.6803  -0.88487
 -11.8044  -15.7102   -0.2767
 -11.7724  -15.7271 -0.320726
 -11.7161  -15.7446 -0.292942
 -11.6909  -15.7543 -0.288166
  -18.158   -16.335  -4.52484
  -11.381  -15.7831  -2.20582
 -10.3539  -16.4204  -1.58052
 -11.9282  -16.4117  -4.06508
 -11.8361  -16.3936  -4.02939
  -11.927  -16.4071  -4.10577
 -11.7865  -15.7243 -0.302807
 -11.7184  -15.7379 -0.282283
 -11.6049  -15.8297 -0.254508
 -10.1687  -16.4099  -2.24388
 -10.2522  -16.4308  -2.30758
 -11.4726  -15.9445  -3.36167
 -11.1328  -15.9147  -3.17524
 -9.52191  -16.3868  -3.48655
 -13.8844  -15.9969 -0.967801
 -11.8079  -15.8041 -0.359813
 -10.3683  -15.9358  -1.46866
 -10.9622  -16.0001  -3.18989
 -11.8824  -15.6695 -0.366974
 -11.8289  -15.7389 -0.349409
 -12.2411  -15.9921  -1.50816
 -11.8112  -16.0665 -0.985446
 -11.4489  -16.3625  -4.07757
 -11.6894  -15.8566 -0.346061
 -13.6669  -15.8015   0.34407
 -15.3767  -16.6313  0.169854
 -11.7067  -15.7658 -0.287183
  -11.637  -15.7897 -0.275166
 -11.7272  -15.7614 -0.326722
 -13.0989  -16.1148  -1.65384
 -10.6049  -16.1128  -1.17816
 -10.9264  -16.1735  -1.39229
 -18.1464  -16.3107  -4.52213
 -10.0467  -16.4172  -2.23677
 -11.2602  -15.9317  -3.18893
 -11.1455   -15.918  -3.18373
 -10.8384  -16.4383  -3.48926
 -12.1591  -16.4957     -4.19
 -11.9596  -16.3903  -4.10355
 -11.9196  -16.4172  -4.11445
 -11.5222  -16.4292  -4.13894
 -11.8174   -15.714 -0.280123
 -11.9409  -15.7289 -0.306901
 -11.5374   -15.838 -0.215553
 -11.6059  -15.7989 -0.250602
 -11.7782  -15.7396 -0.317057
 -11.7232   -15.858 -0.321839
  -12.327  -15.9535  -2.00838
 -12.3299  -15.8279  -2.01673
 -11.1064  -15.8647  -1.85833
 -11.0711  -15.9483  -2.31889
 -11.1919  -15.6244  -2.92761
 -11.0493  -15.9221  -3.14678
 -10.2535  -16.3916  -2.87033
 -11.5261  -15.9792  -3.42969
 -11.2969  -15.8564  -3.43411
 -12.0557  -16.4409  -4.09222
 -11.2521  -16.5058  -3.82631
 -11.7592  -16.3737  -4.19273
 -12.8611   -14.068    1.3976
 -13.3639  -16.2843 -0.457672
  -11.759  -15.7582 -0.236857
 -11.5145  -15.9003 -0.224698
 -11.6583  -15.8594 -0.370712
 -11.8058  -16.0951 -0.591249
 -10.6635  -16.1653 -0.800043
 -12.2955  -15.9551  -2.02168
 -11.0957  -15.9671  -1.99416
 -10.0093  -16.3966  -2.29563
 -10.9787  -15.6844  -2.84632
 -9.80185  -16.4031  -3.22386
 -11.4681  -15.9218  -0.16018
  -11.472  -16.0161 -0.182627
   -11.83  -16.1153 -0.546798
 -12.1183  -16.0539  -1.29551
 -12.0845  -16.0169  -1.34924
 -12.0999  -16.0979  -1.46683
 -18.2357  -16.2675  -4.46148
 -11.0747  -15.6772  -2.90334
 -10.6317  -16.3392  -2.83509
 -10.5926  -16.0235  -2.83294
 -11.0387  -15.9421  -3.18169
 -9.95511  -16.4244  -3.54569
 -11.8237  -15.7875 -0.358982
 -11.8261  -15.8223 -0.401669
 -12.0811  -16.1033  -1.51841
 -10.9327  -16.0568   -1.3563
 -18.1406    -16.19  -4.47909
 -11.0297  -15.9982  -3.22069
 -12.7765  -15.9949  -2.63496
 -11.7083  -15.8942 -0.154755
 -11.8328   -15.669  -0.25547
 -11.8691  -15.9397 -0.785749
 -11.4548  -16.0599  -1.40161
 -11.6963   -15.876  -1.74155
 -10.5086  -16.5034  -2.81031
 -11.7287  -15.8626 -0.338764
 -12.1085  -15.8745 -0.784789
 -16.4959  -15.0051   1.60507
 -16.4269  -15.2337   1.61075
 -16.5287  -15.3978    1.6053
  -17.468   -15.821   1.58181
 -13.6793  -15.8445  0.326189
  -13.873  -16.1221 -0.002947
  -13.876  -16.1143 -0.027798
 -15.0761  -16.6327 -0.296432
 -11.9716  -15.8507 -0.183069
 -12.0375  -15.8351 -0.200506
 -11.4708  -15.9413 -0.176192
 -11.5169  -15.8805 -0.179507
 -11.8568  -15.7252 -0.286597
 -11.6836  -15.7704 -0.282319
    -11.8  -15.7858 -0.384788
  -11.862  -15.7409 -0.392513
 -10.6405  -16.1471 -0.841947
 -14.5899  -16.6249  -1.29455
 -14.8229  -16.6396  -1.32463
 -10.6169   -16.115  -1.18193
 -10.6083  -16.1561  -1.24994
 -10.9046  -16.1644  -1.38856
  -11.316  -15.8079  -2.10151
 -11.3973  -15.7774  -2.17753
 -10.2426  -16.1569  -2.19527
 -10.1372  -16.4256  -2.22549
 -11.1519  -15.8392  -2.40585
 -18.4375  -16.1083  -5.13009
 -10.7979  -16.4263  -3.21486
 -14.8584  -16.6238  -4.59085
  -10.797  -16.4676  -3.53562
 -12.8165  -16.5033  -4.22414
 -11.9409  -16.4038  -4.09884
  -11.907  -16.3999  -4.10742
 -11.8113   -16.392  -4.12716
 -9.59788  -16.3945  -3.48538
 -10.8976  -16.4877  -3.99931
 -10.8255  -16.4477  -3.98773
 -15.5816  -14.6483   1.62754
 -13.4615  -15.7704  0.517833
 -11.5383  -15.7186  0.333646
 -11.3071  -15.8219  0.262928
 -15.3893  -16.6608  0.167765
 -14.0624  -16.1168  0.130847
 -13.7181  -16.0777  0.130065
 -11.4009  -15.9739 -0.129392
 -11.6586  -15.8309  -0.26042
 -11.6356   -15.838 -0.277098
 -13.2865  -16.2788 -0.428776
 -11.9336  -15.7688 -0.383919
 -11.8026  -15.9327 -0.525261
 -11.7973  -15.9869 -0.793912
 -13.9001  -16.0001  -1.01639
  -13.129  -16.1059  -1.51285
 -12.4375  -15.9023  -2.12763
  -11.119  -15.8385  -2.01285
 -11.1088  -15.8709  -2.06796
 -11.2265  -15.7725  -2.14842
 -10.5113  -16.4378  -2.88859
 -11.0406  -15.9199  -3.14401
  -12.948   -16.586  -4.34311
 -11.7567  -16.3502  -4.02503
  -11.962  -16.3799  -4.14279
 -11.8214  -16.3881  -4.10613
 -11.6973  -16.3126  -4.12601
  -11.683  -16.4041  -4.17394
 -11.9531  -13.6579   1.67469
 -14.0388  -15.6489  0.670297
 -13.1944  -15.6114   0.65299
 -13.9879  -15.7176   0.64805
 -11.6891   -15.709  0.346728
 -13.7415  -16.0803  0.155168
 -13.7216  -16.1267   0.08458
 -15.2398  -16.6658 -0.087474
 -11.7629  -15.7384 -0.237977
 -11.7777   -15.758 -0.290666
 -11.8658  -15.7268 -0.315288
 -11.6922  -15.8774 -0.349144
 -11.3071    -16.03  -0.77131
 -10.9585  -15.9114  -1.31834
 -11.0116  -15.8227  -1.32783
 -12.2964  -15.8864  -2.00047
 -12.2753  -15.9135  -2.01326
 -11.2429  -15.7933  -1.96209
 -11.2583  -15.8318  -2.00524
 -10.5135   -15.935  -1.92071
 -11.2294  -15.8567  -2.04381
 -11.1391  -15.7565  -2.41259
 -11.2018  -15.7967  -2.45908
 -11.1044  -15.8233  -2.49527
 -11.1949  -15.6287  -2.92839
 -11.0643  -16.4346  -3.51544
 -11.8357  -16.3519  -4.02083
 -11.1053  -16.4615  -4.02432
 -11.1754  -15.6798  0.338687
 -13.9311  -16.0396  0.177861
 -11.7204  -15.7539 -0.314791
 -14.9408  -16.6552  -1.32522
 -11.8444  -15.9948  -1.12057
 -12.9675  -16.2449  -1.27451
 -12.1134  -15.9887  -1.29049
 -12.1908   -16.127  -1.38015
 -12.0402   -16.049  -1.38359
 -10.9284  -16.0785  -1.32555
 -12.3069   -15.971  -2.11537
 -11.2219  -15.8162  -2.06887
 -10.4178  -16.0098  -2.28343
 -11.0569  -15.8774   -2.4269
 -18.1142  -16.2172  -4.42529
 -10.9859  -16.4778  -3.53451
 -9.92041  -16.4089  -3.51833
 -9.56945  -16.3919  -3.50307
  -11.503  -15.6376  0.652547
 -11.7556  -15.8718 -0.193636
 -13.4104  -16.3483 -0.419563
 -11.8585  -15.8087 -0.364498
  -11.826   -15.806 -0.397164
 -13.8348  -16.1602 -0.977616
 -13.7726  -16.1048  -1.02392
 -11.8546  -16.0147  -1.03505
 -12.3836  -16.0846   -1.4106
  -11.037  -16.1246  -1.31061
 -12.0521  -16.0766  -1.46637
 -11.0064  -16.1316  -1.38073
 -11.2312  -15.8706  -2.12143
 -11.0828  -15.8512  -2.46254
 -10.9248  -15.9202  -2.46375
 -10.8579  -15.8062  -2.91797
 -11.9087  -15.8454  -3.37886
 -11.4249   -15.993 -0.721244
 -11.8626  -16.0158  -1.20975
 -12.2643  -16.0544  -1.26414
 -13.0678  -16.1631  -1.51382
 -11.1752  -15.9567  -1.41108
 -10.4356  -16.3685  -2.88444
  -11.347  -15.4087   0.68032
 -12.3654   -16.034 -0.179921
   -11.45  -15.9366 -0.173606
 -11.6275  -15.9637 -0.624603
 -11.1012  -16.0553  -1.27067
 -10.9058  -15.6319  -2.94969
 -11.4694  -16.0237  -3.48163
 -11.8262  -15.9769 -0.137609
 -11.7137  -15.6446  -3.09399
 -12.3162  -15.9305 -0.561104
 -10.2312    -16.33  -2.81644
 -11.0044  -16.3109  -1.92374
 -10.0682  -16.4223  -3.78014
 -9.54728    -16.38  -3.63383
 -9.78859  -16.4021   -3.6478
 -9.32023  -16.3816  -3.51595
 -10.6363  -16.4596  -3.76048
 -10.1579  -16.4187   -3.5223
  -9.5407  -16.3905  -3.33775
 -10.3376  -16.4322  -3.53332
 -13.1875  -16.5725  -4.21311
 -14.2605  -16.6267  -4.45336
 -11.1249  -16.4616  -3.61268
 -13.5672  -16.5922  -4.20114
 -14.3215  -16.6389  -4.38291
 -11.1173  -16.4674  -3.60153
 -10.9485  -16.4625  -3.51614
 -13.3056  -16.5672  -4.05911
 -9.88017   -16.408   -3.2203
 -11.0437  -15.8593  -3.25839
 -14.5444  -16.6234  -4.22819
 -14.5978  -16.6453  -4.20388
 -14.6308  -16.6447  -4.20436
 -15.6127  -16.6782  -4.38916
 -10.0639  -16.4046  -3.11085
 -15.6193   -16.674  -4.35524
 -10.0568   -16.406   -3.0978
 -10.6454  -16.4512   -3.2108
  -10.669  -16.4488  -3.21109
 -13.3871  -16.5869  -3.80572
 -10.8882  -16.4576  -3.24727
 -10.9047   -16.454  -3.24378
 -10.2454  -16.4118   -3.0419
 -15.0949  -16.6522  -4.01313
 -15.1262  -16.6497  -4.00759
 -9.95953  -16.4119  -2.91108
 -9.87671  -16.4105  -2.88453
 -9.64753  -16.3905  -2.73574
 -14.7634  -16.6425  -3.76113
 -10.4472  -16.4229  -2.84567
 -10.5226  -16.4311  -2.85604
 -10.4677  -16.4255  -2.80416
 -10.3691  -16.4289  -2.71525
 -15.1458  -16.6616  -3.56588
 -9.93834  -16.4105  -2.55627
 -15.2269  -16.6636  -3.51101
 -10.0255  -16.4209  -2.54275
 -14.7567  -16.6442  -3.25473
 -14.7448  -16.6538  -3.23637
 -14.4121  -16.6127  -3.14667
 -15.6179  -16.6641  -3.20888
 -13.8619  -16.6061  -2.89142
 -13.9524  -16.6122  -2.86499
 -15.5384   -16.667  -3.10301
 -11.2231  -15.7562  -2.23111
 -15.0873  -16.6443  -2.91175
 -10.1636  -16.4047  -2.13447
 -12.3599  -15.8232   -2.2109
 -9.99377  -16.4009  -1.99573
 -13.6082   -16.594  -2.53109
 -12.5563   -15.839  -2.22453
 -12.4439  -15.8176  -2.19606
 -14.1995   -16.619  -2.52888
 -15.2036  -16.6506  -2.64618
  -14.237  -16.6201  -2.50657
 -15.4325  -16.6484  -2.58037
  -15.217  -16.6482  -2.43514
 -14.4319  -16.6248  -2.20488
 -13.1148  -16.0768  -1.92689
  -14.301    -16.61  -2.02328
 -11.6768  -16.0012  -1.64319
 -11.5536  -15.9937  -1.60314
  -10.851   -16.118  -1.48125
  -14.137  -16.6081  -1.88803
 -14.7945  -16.6285  -1.87454
 -12.9595   -16.227  -1.59523
 -15.8942  -16.6791  -1.88551
  -13.158  -16.0863  -1.50991
 -11.9083  -15.9984   -1.2819
 -17.0269  -16.6598  -1.78879
 -16.9928  -16.6602  -1.77993
 -17.0078  -16.6753  -1.74295
  -12.025  -16.0647  -1.24061
 -15.6948  -16.6668  -1.58359
 -13.2448   -16.232  -1.30332
 -12.0292  -16.0398  -1.10172
 -12.0335  -16.0581  -1.08984
 -14.6995  -16.6317  -1.31962
 -13.3427  -16.2472  -1.15035
 -12.0744  -16.0178  -1.02156
 -10.6324  -16.1411 -0.897513
 -12.9685   -16.256 -0.970923
 -11.6872  -16.0374 -0.862851
 -15.7873  -16.6622  -1.07253
 -11.1524  -15.9751 -0.740587
 -15.9071  -16.6665  -1.05221
 -12.4373  -16.0431 -0.748978
 -12.4613  -16.0448 -0.738931
 -12.3114  -16.0408 -0.733296
 -12.4845  -16.0455 -0.732941
 -11.1163  -15.9768 -0.523493
 -11.7872  -16.0556 -0.523401
 -15.3478  -16.6457 -0.650471
 -11.7954  -15.7696 -0.445152
 -17.0055  -16.6603 -0.543554
 -13.2915  -16.2839  -0.39197
 -17.0094  -16.6645 -0.506084
 -11.6769   -15.822 -0.280393
 -11.5471  -15.8709  -0.26794
 -15.9585  -16.6707 -0.411067
