-13.6718 -16.7493 -0.172359
-14.4416 -15.0537 1.50635
-15.4366 -16.0375 1.13036
-15.4869 -15.0825 1.78537
-13.872 -14.7952 1.14714
-14.4174 -15.2597 1.27347
-16.5731 -13.0554 1.52299
-15.8583 -12.7389 1.27691
-16.2209 -13.0503 1.27346
-16.2473 -13.0888 1.25455
-16.3569 -15.7106 2.41261
-11.6928 -12.6283 1.91721
-16.5262 -15.9426 2.13373
-14.4927 -14.1558 1.66027
-15.8048 -15.336 1.94691
-16.5113 -15.9786 2.09133
-16.1701 -15.7442 1.92377
-12.3203 -13.5815 1.71546
-16.0363 -15.868 1.69518
-13.6823 -14.5474 1.32135
-14.056 -15.0302 1.2914
-12.6954 -14.5246 1.16526
-16.1549 -16.722 1.30892
-11.9374 -14.045 1.01748
-16.9637 -17.6951 1.46013
-15.6645 -16.3265 0.994066
-13.1904 -15.4522 0.693986
-16.0781 -16.8424 0.512586
-16.0013 -16.7983 0.464119
-16.2872 -17.9365 0.714458
-15.1195 -16.347 0.22299
-14.9965 -16.2879 0.172712
-15.6656 -16.9116 0.195706
-12.6195 -15.6111 0.0925297
-13.3725 -16.2909 0.0656142
-13.0344 -16.5351 -0.432359
-11.7364 -16.4107 -1.32049
-16.1649 -12.7981 1.45937
-16.535 -13.1124 1.44832
-15.865 -12.7606 1.27406
-16.3554 -13.1456 1.27792
-16.1045 -15.0184 2.2577
-15.9625 -15.4476 2.03802
-11.9405 -13.294 1.71473
-14.9529 -14.9978 1.70154
-12.1411 -13.4888 1.65824
-16.5103 -16.4137 1.87253
-15.9363 -15.8215 1.66707
-16.0181 -16.0439 1.46644
-12.5968 -14.1547 1.39146
-11.9922 -13.7606 1.28946
-14.9067 -15.3777 1.27865
-16.8455 -17.4407 1.61204
-14.8799 -15.5802 1.06411
-13.7491 -14.8024 0.691363
-12.4287 -14.6273 0.883257
-12.4658 -14.9265 0.65653
-16.1017 -16.7629 0.66098
-13.1107 -15.4077 0.661229
-12.2079 -14.7992 0.531448
-12.1635 -14.7742 0.513801
-15.1317 -16.35 0.565154
-15.0672 -16.3059 0.288067
-13.5302 -16.0141 0.429879
-11.785 -14.7923 0.189536
-15.3829 -16.7961 0.0871846
-12.2062 -15.6651 -0.272747
-13.7403 -16.8542 -0.207695
-12.834 -16.1962 -0.303918
-13.4387 -16.7122 -0.286285
-12.6515 -16.1485 -0.375595
-13.3744 -16.8536 -0.485781
-13.4 -16.9652 -0.535595
-12.8503 -16.7054 -0.72534
-16.3346 -14.9511 2.31749
-15.3124 -14.3386 2.10305
-16.0222 -15.3576 2.18088
-14.8761 -14.2932 1.83903
-15.8814 -15.347 2.01974
-15.901 -15.4317 2.00785
-14.4243 -14.1136 1.63602
-15.7228 -15.1887 1.82654
-16.4732 -16.1184 2.06583
-13.8514 -13.8677 1.43241
-15.999 -15.733 1.81117
-15.0852 -15.205 1.60273
-15.9254 -15.9869 1.49617
-16.0759 -16.0969 1.49491
-12.2532 -13.8905 1.40943
-12.6578 -14.2542 1.3692
-12.8295 -14.4776 1.29697
-14.4161 -15.3966 1.18972
-14.1214 -15.202 1.15679
-16.6576 -17.3285 1.56651
-16.7281 -17.4091 1.54426
-16.8474 -17.6359 1.42282
-15.2284 -15.8032 0.908852
-11.9587 -14.1574 0.922171
-16.9725 -17.9748 1.21108
-11.9325 -14.4666 0.61673
-11.9415 -14.9035 0.234251
-11.9573 -15.0835 0.0842574
-15.1981 -16.6976 0.0560614
-13.4958 -16.7569 -0.265984
-13.4512 -16.8042 -0.366534
-16.4235 -15.9047 2.21598
-15.7491 -15.2233 1.89542
-15.6659 -15.165 1.84692
-14.1652 -14.0152 1.5271
-16.1102 -16.0994 1.5405
-12.3926 -14.4085 1.04947
-13.8541 -15.0346 0.780989
-17.0811 -17.9364 1.34167
-12.4236 -14.6421 0.861168
-15.438 -16.7971 0.141949
-14.909 -14.2257 1.90493
-15.7069 -15.2191 1.78938
-16.4438 -16.0691 2.07652
-13.748 -13.843 1.37641
-15.0353 -15.5978 1.17758
-14.9471 -16.2792 0.197439
-16.0677 -17.125 0.0362776
-13.2126 -16.1158 0.0611883
-11.8169 -16.4055 -1.29244
-13.636 -14.2782 1.35378
-12.9949 -16.8188 -0.68975
-14.4123 -14.0615 1.68434
-16.2016 -16.4411 1.36411
-15.2044 -16.3342 0.617915
-11.9828 -14.6695 0.460729
-12.88 -16.4223 -0.484778
-15.8636 -14.5461 2.28108
-15.9329 -15.7601 1.75875
-16.2893 -16.6077 1.45861
-14.1783 -15.3374 1.13943
-13.7236 -14.8385 0.919641
-15.3032 -16.4012 0.59056
-15.9686 -12.4518 1.46659
-12.8665 -16.6614 -0.702218
-13.3352 -16.7093 -0.33582
-12.7267 -16.1431 -0.319654
-14.9103 -15.582 1.07176
-12.4159 -14.8784 0.599083
-16.5589 -16.1188 2.12381
-15.6456 -15.2373 1.57744
-12.8412 -14.3212 1.43054
-12.3848 -14.022 1.33384
-14.9109 -14.3198 1.82722
-15.4687 -14.5542 2.03768
-14.9002 -14.3068 1.83516
-15.9922 -14.7045 2.27543
-14.1822 -13.8502 1.69609
-12.023 -12.9843 1.99876
-16.5433 -13.0668 1.49733
-16.8929 -17.9685 1.1271
-17.134 -18.0563 1.24141
-14.7354 -16.3259 0.0397933
-13.3906 -16.0573 0.252578
-16.4029 -16.6208 1.53999
-14.4188 -15.4022 1.20262
-14.4545 -15.2056 1.37006
-14.4855 -15.1889 1.38253
-13.6379 -14.2394 1.40016
-16.1088 -15.0012 2.26405
-12.2485 -13.7549 1.5094
-16.263 -14.9175 2.29702
-11.745 -13.5144 1.34959
-15.9088 -14.6076 2.30055
-12.172 -13.3803 1.83357
-15.973 -12.81 1.3044
-15.0712 -16.686 -0.341252
-16.5727 -16.959 1.07059
-16.7833 -17.4327 1.57607
-12.3684 -15.03 0.387668
-13.899 -14.2156 1.4438
-12.4915 -12.939 2.22563
-11.9373 -12.637 2.04502
-15.2301 -16.2001 0.777242
-16.3274 -16.5581 1.52654
-11.955 -14.6657 0.448234
-12.5538 -14.4942 1.06631
-11.8292 -13.981 0.96399
-13.7583 -14.3245 1.4181
-13.9311 -14.2812 1.53826
-15.6911 -14.6967 2.05222
-14.803 -13.9745 1.88867
-15.249 -15.9097 0.953202
-14.9556 -14.3564 1.81544
-11.8376 -12.8297 1.98998
-14.5942 -16.4471 -0.0513871
-14.9424 -16.2178 0.326899
-15.0513 -15.8037 0.8534
-15.7235 -15.9266 1.40014
-12.0812 -14.5161 0.699375
-11.9137 -14.4228 0.661534
-12.3709 -14.3403 1.04964
-16.0492 -15.5245 2.05612
-13.8858 -14.2028 1.39675
-15.8775 -16.348 1.27986
-15.4716 -15.977 1.17217
-15.3284 -15.5079 1.52507
-16.025 -15.6115 1.92031
-15.8593 -14.805 2.11479
-15.9034 -16.8683 0.531248
-15.3412 -15.8735 0.991817
-14.0481 -14.8749 1.41017
-14.1678 -14.1231 1.55437
-15.8954 -12.476 1.43707
-15.2273 -15.7314 1.14495
-12.3113 -15.1778 0.288321
-14.6223 -15.7227 0.852972
-16.5048 -16.9673 1.06036
-15.3736 -16.2858 0.792995
-12.979 -16.0153 0.0136139
-15.5093 -16.0518 1.14066
-16.0348 -16.0581 1.50106
-15.5969 -15.9643 1.30945
-16.2524 -15.6886 2.34787
-14.452 -15.2097 1.37635
-15.8214 -15.2297 2.03921
-12.1841 -14.5306 0.790542
-16.0971 -15.0173 2.26339
-16.2637 -14.8909 2.33581
-13.8189 -14.4117 1.36309
-15.0497 -14.398 1.8596
-14.9179 -14.3558 1.78004
-11.9429 -14.0514 1.0367
-12.3237 -13.7624 1.56672
-16.4725 -16.5859 1.66996
-12.1442 -15.438 -0.102391
-15.4597 -15.6268 1.40851
-14.4852 -15.1885 1.38427
-12.3901 -13.6264 1.70766
-16.6881 -17.381 1.55881
-12.3809 -15.052 0.417404
-13.7727 -14.8732 0.671641
-11.8517 -14.6161 0.39087
-16.1834 -15.3479 2.27218
-11.8437 -14.1183 0.859077
-16.1986 -12.9136 1.37557
-15.5996 -16.1089 1.19193
-14.5073 -15.8399 0.806403
-12.1269 -13.7398 1.47752
-12.0231 -12.6036 2.13889
-16.6218 -16.7161 1.36833
-11.9948 -12.7114 2.01313
-16.3855 -16.686 1.43456
-16.3327 -15.8774 2.19677
-16.0518 -15.5427 2.07604
-14.4241 -15.0222 1.597
-14.758 -14.4849 1.79539
-15.3455 -16.2844 0.726233
-15.565 -14.614 2.0426
-15.1215 -13.9828 1.91501
-15.7294 -16.391 1.00069
-16.2791 -16.6291 0.919134
-14.1786 -15.22 0.892015
-15.995 -12.675 1.50478
-12.4013 -16.265 -0.682013
-16.7971 -17.6254 1.3946
-16.1859 -16.8433 1.24224
-15.9078 -16.0411 1.44961
-11.5762 -15.6755 -0.77828
-16.3881 -15.1708 2.35953
-13.7671 -14.8727 0.678101
-15.5956 -16.1069 1.19761
-15.4465 -16.0289 1.06286
-14.3925 -15.5817 0.884072
-15.7906 -15.2721 1.8115
-15.7531 -15.2107 1.71705
-12.3766 -14.878 0.608054
-17.0634 -17.9283 1.32948
-13.7376 -16.8668 -0.181884
-16.2308 -16.4127 1.38295
-15.5675 -15.6334 1.83258
-16.2222 -16.4571 1.35165
-13.9276 -14.3295 1.5054
-15.6439 -15.5989 1.76024
-15.6004 -16.3573 0.783672
-16.101 -14.7379 2.33833
-14.9308 -15.0284 1.64089
-16.242 -15.8625 2.15396
-15.9374 -15.6156 1.86125
-15.0019 -15.1126 1.60131
-12.7693 -15.7046 0.124431
-15.1019 -14.9535 1.83896
-13.7629 -14.9975 0.634762
-13.7309 -16.8413 -0.193149
-13.9923 -14.2516 1.5763
-16.2992 -16.994 0.913547
-16.5157 -16.9213 1.05939
-15.5104 -15.9788 1.17076
-16.5249 -12.5336 1.51958
-15.7428 -16.4275 0.952194
-15.8783 -15.9722 1.47663
-16.0627 -15.7696 1.81302
-15.5162 -15.5678 1.65957
-15.7048 -15.4076 1.78995
-15.7509 -15.2271 1.68091
-15.1079 -15.4448 1.36612
-14.8614 -15.5224 1.11016
-12.1777 -16.1539 -0.747424
-14.3143 -14.8956 1.59524
-14.1148 -14.7049 1.63355
-14.3959 -15.5992 0.925957
-13.8485 -14.3078 1.42293
-16.6227 -16.3119 2.05714
-15.4693 -15.5481 1.58496
-15.5306 -16.379 0.813323
-15.467 -16.382 0.794487
-13.903 -14.2253 1.46434
-15.6163 -15.6089 1.79857
-15.9695 -15.6254 1.87924
-15.0286 -15.4509 1.30909
-14.5569 -15.454 1.26239
-12.2106 -16.1338 -0.694705
-12.3926 -15.909 -0.360346
-12.7251 -14.5173 1.18145
-16.0721 -15.5263 2.04939
-16.0619 -15.4707 2.09908
-15.0536 -15.0857 1.67194
-11.8623 -12.5178 2.08748
-15.5134 -16.0144 1.13111
-15.0137 -15.3984 1.35288
-15.0302 -15.3517 1.40935
-13.9637 -14.2404 1.5982
-14.9767 -15.4804 1.25275
-16.3795 -15.2056 2.37472
-15.3706 -16.0226 0.992438
-16.3211 -17.0362 0.847084
-16.2171 -16.9857 0.451505
-16.8068 -17.9443 1.12572
-15.5726 -16.3502 0.902534
-15.0537 -15.0857 1.6792
-14.8587 -15.3337 1.3048
-11.8087 -15.9125 -0.813509
-16.82 -17.9053 1.17374
-16.2877 -17.8615 0.797457
-16.0475 -15.8062 1.77623
-12.7654 -14.4344 1.29412
-11.7971 -15.9598 -0.861779
-15.0939 -14.9718 1.81365
-14.5892 -14.9225 1.77658
-12.7553 -15.7437 0.0840254
-11.9349 -14.1145 0.914739
-16.6687 -17.1936 1.6745
-16.0158 -16.7542 0.548526
-14.9775 -15.4871 1.2401
-14.9833 -14.899 1.79652
-14.2951 -15.9029 0.2815
-12.9848 -14.6329 1.26508
-14.5315 -15.4412 1.23322
-13.6261 -14.576 1.04383
-15.7946 -16.4088 0.927063
-16.0521 -15.5683 2.00355
-15.1075 -15.622 1.20291
-16.1582 -12.7922 1.4565
-14.4564 -16.055 0.626051
-14.4402 -14.9364 1.6622
-13.6598 -14.428 1.24305
-12.1968 -16.1505 -0.736041
-15.8922 -15.6437 1.80505
-15.485 -16.0052 1.13784
-14.8718 -15.1942 1.44297
-14.3049 -15.9799 0.312174
-13.373 -15.8761 0.419592
-13.2782 -16.5103 -0.227532
-12.7438 -14.4365 1.26811
-12.6066 -15.3962 0.301487
-12.477 -14.9307 0.632732
-12.5882 -14.1033 1.41818
-12.4095 -13.7633 1.64528
-16.12 -16.5752 0.741252
-14.9 -15.8356 0.768823
-14.562 -15.4124 1.29503
-14.4301 -14.8944 1.69069
-14.1441 -15.4186 0.983949
-12.8838 -16.5429 -0.557494
-12.7567 -14.4882 1.24319
-12.3841 -15.7635 -0.250635
-12.3931 -13.7087 1.62252
-11.9427 -12.6926 2.00069
-15.7425 -16.3603 1.03297
-13.571 -16.059 0.421703
-12.3814 -15.8682 -0.357753
-12.3288 -14.4676 0.939415
-11.9635 -14.5481 0.550603
-15.0785 -15.2912 1.49898
-12.6125 -14.2216 1.3722
-12.2173 -16.0024 -0.562592
-11.902 -13.2931 1.65852
-16.1453 -16.1868 1.33332
-15.0951 -15.7709 1.02107
-16.587 -16.8077 1.23954
-15.8536 -15.5597 1.87177
-15.6958 -15.8123 1.42212
-15.1335 -15.5839 1.26104
-15.8009 -16.1681 1.26832
-14.5118 -15.0586 1.63204
-15.7243 -15.7131 1.69417
-16.1343 -15.513 2.11482
-15.3004 -16.2247 0.802657
-15.1606 -16.4253 0.168169
-13.5766 -16.1049 0.360828
-13.4378 -16.71 -0.290092
-13.3269 -16.7201 -0.38068
-15.9808 -15.446 2.05972
-15.0887 -15.6487 1.17218
-14.8735 -15.1932 1.447
-14.494 -15.1344 1.49932
-13.9376 -14.8474 1.36518
-13.3802 -15.8752 0.411765
-12.2295 -13.4051 1.81832
-11.9498 -14.1705 0.908489
-16.1374 -15.7416 1.89414
-15.0909 -15.5987 1.21662
-15.0369 -16.3382 0.203531
-14.1606 -14.8231 1.56459
-12.4136 -13.7881 1.60718
-12.4674 -14.9211 0.612635
-11.9105 -13.3565 1.63495
-11.8902 -13.1837 1.73241
-12.0452 -15.1196 0.112653
-11.9327 -15.0577 0.0570853
-11.8126 -15.7668 -0.672599
-16.1275 -16.9 0.508053
-15.1225 -16.3886 0.160662
-15.0166 -16.3329 0.188127
-14.4622 -15.6309 1.01586
-14.4203 -15.5698 1.01312
-13.2094 -15.6327 0.525006
-12.9503 -14.6069 1.26071
-12.3294 -14.3743 1.01735
-14.4433 -15.5451 1.08922
-13.0469 -16.8494 -0.722751
-12.6199 -14.2297 1.36231
-12.424 -14.4321 1.05767
-16.1385 -16.0664 1.60627
-15.37 -15.6803 1.3955
-15.1263 -16.3861 0.277261
-13.9403 -15.0751 0.884172
-14.5146 -15.2915 1.37401
-17.1571 -18.0997 1.25564
-16.3516 -15.6946 2.41271
-16.8173 -17.946 1.14217
-16.7893 -18.0567 1.0172
-16.0273 -15.5056 2.02937
-15.841 -16.7276 0.442619
-15.0297 -15.0866 1.65519
-15.0257 -15.3063 1.45396
-12.742 -14.4465 1.25484
-13.2291 -16.3094 -0.100535
-15.9801 -15.4473 2.05901
-16.1071 -15.8869 1.74327
-16.045 -15.859 1.7172
-16.1105 -16.0896 1.54476
-16.3035 -13.0768 1.31317
-15.0916 -15.6811 1.12225
-14.0683 -15.0524 1.27858
-14.3521 -16.0922 0.0777783
-12.3218 -13.3231 1.94871
-12.4093 -14.1889 1.21035
-11.6768 -12.5529 1.91251
-12.3703 -15.0398 0.437469
-12.4134 -15.5308 0.0320475
-11.8359 -15.3699 -0.300874
-12.1682 -16.5629 -1.11547
-16.106 -15.4378 2.15357
-16.5904 -16.7264 1.33042
-16.0497 -15.3424 2.18834
-16.0504 -15.4176 2.12056
-16.0783 -15.8124 1.78374
-16.0253 -15.7912 1.74551
-16.102 -16.0448 1.59029
-16.0654 -15.9949 1.61279
-15.9502 -12.8172 1.28725
-15.0377 -14.9584 1.78679
-14.9749 -14.2728 1.92487
-15.0595 -15.3615 1.41807
-15.0802 -15.5916 1.22909
-14.4721 -15.5789 1.08497
-14.4339 -15.539 1.10202
-14.0061 -13.8909 1.51468
-12.3248 -13.4559 1.84863
-12.3134 -14.3624 0.997233
-12.3464 -14.5189 0.883944
-11.9677 -14.6766 0.488825
-15.908 -15.3497 2.05962
-15.9525 -15.6373 1.85302
-16.0522 -16.7903 0.553952
-15.2534 -16.3337 0.646433
-13.8016 -14.4036 1.36898
-14.3005 -15.996 0.327757
-12.6111 -14.1012 1.44098
-11.9513 -14.6407 0.487453
-12.4572 -15.0371 0.484525
-12.3257 -14.897 0.518072
-14.0223 -15.0989 0.887803
-15.3654 -16.4115 0.618735
-16.5456 -15.9608 2.12749
-16.1412 -15.7135 1.92304
-17.1512 -18.0878 1.26084
-16.9523 -17.8912 1.28134
-15.9686 -15.7261 1.78415
-16.7993 -17.9282 1.14305
-14.9553 -15.2066 1.5062
-16.0764 -17.071 0.366974
-14.2511 -13.9309 1.6488
-14.4567 -15.5547 1.07478
-12.3323 -14.8449 0.553192
-13.2853 -16.4939 -0.206716
-12.1237 -15.6327 -0.31471
-16.0687 -15.3775 2.19005
-15.9794 -15.4478 2.05869
-16.1029 -15.64 1.94664
-16.0428 -15.7541 1.81968
-16.1051 -15.8842 1.74415
-15.9397 -15.6603 1.80966
-16.0472 -15.8608 1.7152
-16.0362 -15.86 1.70083
-15.8948 -15.7991 1.65807
-15.9568 -16.0038 1.50073
-14.931 -15.164 1.51124
-13.8821 -13.8355 1.48733
-12.5469 -12.9669 2.23284
-15.2502 -16.702 0.0449778
-12.3839 -13.2702 2.07345
-12.3048 -13.378 1.8751
-12.2713 -13.603 1.62887
-16.0672 -15.4034 2.15936
-17.1146 -17.9988 1.29031
-15.7401 -14.7221 2.07128
-16.0023 -15.9034 1.65476
-15.1237 -15.497 1.35046
-15.0681 -15.4114 1.36349
-15.4368 -16.7906 0.147419
-15.0491 -16.3254 0.207854
-12.9896 -15.356 0.646994
-11.9371 -14.4367 0.635602
-16.5305 -16.438 1.85855
-16.103 -15.6171 1.97677
-16.6026 -16.7365 1.37126
-14.7533 -14.0734 1.91201
-15.0863 -15.1667 1.6068
-15.1135 -15.5007 1.32939
-15.0419 -15.5357 1.25652
-14.8955 -15.3414 1.31717
-13.6748 -14.3572 1.29363
-12.8782 -15.548 0.362123
-16.292 -13.0478 1.32134
-15.8975 -15.4462 2.01454
-16.0906 -15.6546 1.92873
-15.9203 -12.7351 1.33326
-15.4049 -16.3392 0.737167
-13.79 -14.8584 0.91666
-16.2365 -12.9328 1.39319
-16.2775 -13.0438 1.3123
-16.3555 -15.7044 2.41338
-15.9147 -12.7329 1.31765
-15.9214 -15.4279 2.0269
-16.2395 -16.5653 1.4966
-14.9223 -15.5859 1.07161
-16.0079 -16.7376 0.606069
-14.3977 -15.5548 0.997551
-11.7741 -13.3021 1.55816
-11.8197 -15.2764 -0.209973
-15.9316 -12.7592 1.32185
-15.9598 -12.8026 1.30579
-15.9797 -15.4474 2.06052
-16.2943 -16.1259 1.95999
-16.1143 -15.6824 1.92023
-16.0411 -15.751 1.82117
-16.0931 -16.0282 1.59315
-15.9673 -16.0998 1.4416
-13.6698 -14.4453 1.26899
-12.2055 -13.3882 1.81328
-12.3512 -13.7208 1.59282
-12.3777 -13.8062 1.58148
-11.8714 -13.1649 1.69946
-12.2897 -14.2855 1.06556
-11.9552 -14.1542 0.92252
-11.9202 -14.1959 0.894176
-11.924 -14.8858 0.212901
-16.3053 -14.9256 2.32227
-16.3031 -13.075 1.31019
-16.332 -13.1244 1.28836
-16.2662 -16.1021 1.95325
-15.9697 -15.6572 1.84687
-15.0651 -15.1715 1.61901
-14.0317 -13.9388 1.51515
-14.9478 -15.4141 1.29319
-15.0343 -15.5202 1.22405
-13.9141 -14.8203 1.35209
-15.2258 -16.3106 0.658483
-13.8256 -14.8263 0.827936
-12.3832 -14.1174 1.25627
-15.2252 -16.6894 0.0813721
-11.9441 -14.0422 1.01935
-14.877 -16.6366 -0.153448
-12.4463 -15.5408 0.00357293
-15.9993 -15.3918 2.12937
-14.92 -14.2252 1.92239
-14.9161 -15.3749 1.33816
-14.0486 -14.0429 1.52275
-14.0193 -14.9595 1.3135
-13.9014 -15.1206 0.796903
-12.1435 -13.8994 1.24178
-12.6245 -15.4249 0.300608
-15.2985 -14.3113 2.10165
-16.4043 -16.2942 1.92152
-15.5679 -16.1083 1.20432
-14.0074 -13.8617 1.48888
-12.195 -15.6333 -0.237487
-15.2748 -14.3049 2.07813
-16.2192 -15.9207 1.89516
-15.09 -14.3592 1.91823
-14.5342 -14.1237 1.71913
-14.4001 -15.5472 1.08225
-11.6207 -12.6909 1.90102
-14.1411 -15.5545 0.664053
-15.2329 -16.06 0.941701
-16.166 -12.7968 1.45977
-16.2646 -13.0197 1.3282
-15.8658 -12.7597 1.27328
-15.702 -14.6457 2.13526
-15.1364 -14.401 1.92975
-14.9317 -15.0137 1.64657
-14.0045 -13.9053 1.52416
-15.5679 -16.0677 1.18365
-12.7764 -14.2207 1.45973
-16.935 -17.9651 1.19355
-15.1974 -16.1303 0.798366
-12.8 -14.839 0.938877
-15.5914 -16.8936 0.161137
-15.1797 -16.7118 0.0151988
-12.2975 -15.2582 0.181657
-13.1731 -16.4974 -0.293631
-15.868 -14.5666 2.29411
-15.861 -12.9244 1.11195
-16.0311 -15.354 2.17599
-16.1228 -15.5052 2.12638
-15.9116 -15.4361 2.00783
-16.0439 -15.575 1.97165
-14.9704 -14.3973 1.80006
-16.017 -15.6948 1.85344
-15.0679 -15.1741 1.61674
-15.0904 -15.2132 1.59976
-12.2837 -13.8784 1.39622
-12.7258 -14.382 1.30072
-12.0232 -14.2426 0.873356
-15.8453 -16.9678 0.282677
-11.93 -14.6566 0.436314
-11.9361 -14.9005 0.232777
-11.8294 -15.265 -0.214886
-15.8167 -15.3289 1.89486
-14.9962 -15.2478 1.48625
-12.3368 -13.6146 1.66231
-14.2646 -15.295 1.17585
-12.7031 -15.25 0.499734
-12.0638 -15.4415 -0.15989
-12.7778 -16.6611 -0.745542
-11.7266 -16.2284 -1.14853
-16.2049 -12.9438 1.3393
-15.7263 -15.2131 1.87359
-12.2636 -13.1868 2.04008
-14.9446 -15.5434 1.11176
-12.3023 -14.5726 0.806626
-15.6301 -16.925 0.200069
-15.0495 -16.6455 -0.014154
-14.2839 -13.9493 1.70697
-13.9428 -13.8542 1.51719
-15.7753 -16.6996 0.518676
-16.321 -16.5533 1.55966
-14.427 -15.0145 1.3986
-14.3722 -16.0716 0.299758
-14.2009 -15.2953 1.12206
-13.7574 -14.8565 0.915054
-14.5434 -15.5195 0.987394
-16.1841 -12.8328 1.44205
-15.2837 -15.0071 1.86601
-15.7875 -15.2569 1.86558
-14.4306 -15.2176 1.34111
-16.3639 -16.5969 1.56509
-12.6296 -14.4714 1.13504
-15.0003 -15.5995 1.10374
-12.295 -14.3183 0.956179
-14.3088 -15.6001 0.88155
-15.3718 -16.2923 0.785989
-12.0127 -14.6647 0.472762
-16.3832 -17.7294 1.01025
-16.0417 -16.7591 0.521846
-16.0203 -17.095 0.3309
-15.0037 -16.334 0.115014
-15.3812 -16.7993 0.0873897
-12.6243 -16.6026 -0.811171
-12.1779 -16.4196 -0.980151
-11.6422 -12.5568 1.90443
-15.4945 -14.6125 1.9967
-14.9219 -14.2493 1.89756
-13.6966 -14.335 1.3604
-13.6666 -14.3306 1.31203
-12.4852 -14.4451 1.06146
-15.2289 -15.8037 0.909357
-12.2814 -14.5708 0.80903
-15.4391 -16.3338 0.791798
-12.2075 -14.8015 0.531946
-11.9919 -14.6778 0.455284
-17.0381 -18.0146 1.23472
-12.3111 -15.0854 0.349087
-15.0414 -16.3525 0.153434
-14.8453 -16.2684 0.05625
-12.4187 -16.0024 -0.421719
-12.6684 -16.3998 -0.576765
-12.6519 -16.6115 -0.793568
-12.1052 -16.4096 -1.02802
-15.8596 -14.5659 2.29328
-15.9238 -15.3091 1.98437
-15.6656 -15.1577 1.83583
-12.3894 -13.6479 1.70654
-13.7418 -13.8567 1.35651
-12.484 -14.0917 1.35442
-16.553 -16.7038 1.38864
-11.9383 -14.1734 0.864409
-16.6651 -17.3573 1.54061
-12.0108 -14.6931 0.475576
-12.0372 -14.87 0.31149
-16.1031 -16.878 0.453338
-12.6876 -15.6623 0.121476
-12.5344 -15.5995 0.0535312
-15.9908 -12.819 1.30395
-11.9469 -13.0082 1.95458
-15.5569 -15.1234 1.68483
-15.1166 -15.0652 1.75837
-14.976 -15.2003 1.50314
-11.9825 -13.8201 1.25002
-15.529 -16.0511 1.24376
-12.1236 -14.5243 0.691793
-12.955 -16.0638 -0.0698524
-16.0872 -14.9424 2.22305
-15.4861 -15.5424 1.44426
-16.8196 -17.8081 1.21726
-15.8528 -16.5552 0.685081
-14.9948 -16.7516 -0.494115
-16.2447 -14.9093 2.29426
-13.9468 -14.0782 1.53266
-15.6132 -16.3373 0.783094
-15.6113 -15.2174 1.73487
-13.6578 -16.2012 0.0102207
-16.0426 -15.4657 2.09492
-15.8419 -15.8411 1.52424
-12.053 -13.0185 2.07512
-14.0731 -13.8398 1.63595
-12.0822 -13.5108 1.60955
-16.2683 -14.8946 2.33724
-14.9022 -14.3077 1.83606
-15.6631 -14.6958 2.03024
-16.2761 -15.3655 2.32733
-15.8091 -15.2236 2.03209
-15.7653 -15.2359 1.86385
-11.5874 -14.0285 0.745312
-14.4612 -15.2043 1.36799
-15.6023 -16.0788 1.22949
-15.2213 -15.8077 0.918132
-12.8319 -15.6884 0.165406
-11.9435 -15.3457 -0.134461
-15.9743 -16.6961 0.615767
-16.0232 -16.7131 0.608311
-14.9968 -16.2823 0.170472
-15.0397 -16.3308 0.179153
-15.068 -16.3586 0.1468
-12.4222 -15.9876 -0.418513
-11.854 -16.0463 -0.848104
-11.9784 -13.2456 1.75302
-14.2858 -13.9079 1.72532
-15.123 -14.4227 1.8885
-16.1076 -14.9975 2.26083
-11.6019 -13.905 0.877798
-13.0848 -15.4109 0.665454
-16.6815 -17.1578 1.74097
-16.7649 -17.2078 1.76652
-12.4973 -15.3688 0.280653
-12.4 -15.5289 -0.00332621
-12.4415 -15.5285 -0.0177671
-12.677 -15.8961 -0.121799
-17.106 -18.0593 1.25826
-17.128 -18.0821 1.25505
-13.0854 -16.3064 -0.185138
-12.9728 -16.2847 -0.214613
-12.6735 -16.2087 -0.31102
-15.0116 -16.6272 -0.0405739
-12.2322 -16.2402 -0.802477
-12.7228 -16.6479 -0.782456
-11.9397 -16.3176 -1.08463
-11.8502 -12.561 2.0916
-12.1021 -13.5428 1.67727
-13.5731 -14.0967 1.42311
-14.3526 -15.5371 1.04017
-12.4526 -15.3278 0.226634
-12.479 -15.341 0.213774
-15.321 -16.2381 0.781214
-15.1979 -16.3042 0.662096
-16.5716 -16.9637 1.07817
-15.882 -16.6264 0.63782
-16.2589 -17.1099 0.686475
-12.7438 -16.1116 -0.271047
-12.8372 -16.2698 -0.264303
-11.635 -15.6658 -0.716867
-13.122 -16.5619 -0.400184
-15.2789 -16.7699 -0.268744
-15.0971 -16.6942 -0.333936
-14.8996 -16.618 -0.403254
-13.102 -16.8441 -0.638946
-11.8909 -16.2897 -1.08739
-11.7932 -16.2478 -1.12525
-11.834 -16.4627 -1.27506
-14.8044 -13.9706 1.88963
-12.1021 -13.4625 1.61593
-14.4681 -14.1598 1.62959
-13.8522 -14.0201 1.45823
-12.3176 -13.9717 1.34994
-13.7687 -14.316 1.40958
-13.5958 -14.9135 0.605747
-14.3635 -15.5421 0.998561
-16.3061 -16.5769 1.50751
-11.7246 -14.8104 0.168592
-13.2996 -15.919 0.356096
-16.2629 -17.1548 0.623647
-12.4084 -15.9809 -0.351057
-16.1805 -17.0951 0.491852
-13.6892 -16.8243 -0.217992
-14.9221 -16.6978 -0.485456
-12.618 -16.8028 -1.00036
-15.2694 -15.8977 0.943632
-12.0428 -15.1347 0.092162
-15.4473 -16.3295 0.794019
-12.4011 -15.8544 -0.181154
-15.2753 -16.3889 0.117995
-12.6142 -16.1882 -0.550351
-11.6178 -15.9224 -0.965969
-14.7242 -16.5929 -0.443912
-16.0746 -12.8378 1.30531
-12.0904 -14.2934 0.913724
-12.9975 -15.5924 0.441093
-16.7601 -17.7842 1.25899
-15.8136 -16.7454 0.390155
-14.5807 -16.4643 -0.0433082
-12.8306 -16.4073 -0.507189
-12.3924 -16.2332 -0.656959
-12.5963 -16.316 -0.584697
-11.73 -12.6421 1.90749
-14.3996 -14.3465 1.68286
-14.0534 -14.2291 1.59574
-14.6201 -16.442 -0.00538936
-15.7191 -14.6698 2.11313
-15.4103 -15.1375 1.65944
-12.4016 -15.7465 -0.157049
-16.2683 -17.8984 0.745314
-16.2741 -17.8866 0.758321
-16.4549 -17.9438 0.837686
-16.721 -17.9062 1.08957
-16.5297 -17.8188 1.01604
-16.5109 -17.7775 1.04736
-16.5682 -17.7089 1.15517
-16.5618 -17.6987 1.1533
-15.1522 -16.4206 0.149353
-17.0565 -17.8458 1.41639
-17.0414 -17.7662 1.44876
-16.9786 -17.7032 1.46746
-16.9622 -17.6971 1.46009
-16.7793 -17.4149 1.60162
-14.3691 -16.0275 0.529588
-16.6596 -17.1731 1.70476
-14.3708 -15.9009 0.635305
-16.2091 -16.6151 1.33269
-14.3808 -15.9123 0.645246
-16.238 -16.6448 1.3784
-14.3694 -15.8888 0.650409
-14.382 -15.8886 0.670539
-15.6375 -15.638 1.38237
-15.6698 -15.3078 1.56254
-16.5354 -15.9235 2.17166
-15.0419 -15.1997 1.56673
-15.0354 -15.1304 1.60977
-14.4079 -14.0803 1.66341
-14.9655 -14.3238 1.86162
-16.093 -14.8136 2.25278
-16.1061 -14.8175 2.2699
-14.1754 -13.9033 1.64574
-15.1877 -14.3269 2.02763
-16.3415 -11.7177 0.913456
-15.1479 -16.7414 -0.0449144
-12.4816 -16.3051 -0.660114
-16.7217 -17.9132 1.07879
-16.4663 -17.7693 1.016
-16.9251 -17.8617 1.27666
-16.7205 -17.777 1.1986
-16.5688 -17.7096 1.14268
-16.5693 -17.6912 1.16455
-16.073 -16.7974 0.571806
-11.8114 -15.806 -0.702274
-17.0662 -17.8525 1.42745
-15.0297 -16.3434 0.169465
-16.6956 -17.6422 1.2991
-15.4504 -16.6785 0.496525
-13.1418 -16.2636 -0.11173
-16.8147 -17.6304 1.40483
-16.7228 -17.5955 1.3669
-16.6272 -17.5576 1.34381
-16.6494 -17.5641 1.35298
-16.8593 -17.6194 1.44552
-16.3849 -16.9643 1.04137
-12.3969 -15.7924 -0.248607
-13.2148 -16.0276 0.150007
-16.3146 -16.9184 1.1719
-16.7395 -17.405 1.56873
-15.3745 -16.386 0.69624
-15.4905 -16.42 0.743434
-13.1471 -15.8597 0.272322
-14.3694 -15.9604 0.595096
-14.3731 -15.8746 0.661892
-16.5052 -16.6526 1.58274
-16.5897 -16.665 1.61647
-16.5804 -16.6539 1.62624
-14.1509 -15.5965 0.756158
-15.5884 -15.9628 1.30415
-15.623 -15.9772 1.33643
-14.0635 -15.4271 0.83659
-14.0692 -15.4393 0.85142
-14.0634 -15.4238 0.862375
-14.0624 -15.4099 0.874099
-14.3864 -15.4415 1.14721
-11.5281 -14.4911 0.291252
-14.0647 -15.2607 1.01815
-14.8535 -15.4043 1.22899
-15.0854 -15.4925 1.32268
-15.6308 -15.5926 1.42589
-15.0832 -15.4538 1.3508
-14.9445 -15.3837 1.3083
-14.8535 -15.3328 1.28005
-15.5334 -15.5442 1.68538
-13.6418 -14.6905 0.98106
-15.8978 -15.6138 1.82836
-15.6801 -15.3047 1.57819
-12.2685 -14.303 1.00162
-12.73 -14.4882 1.21779
-15.7949 -15.2714 1.87468
-15.8123 -15.3462 1.95629
-15.7598 -15.2169 1.84723
-15.6584 -15.1595 1.81423
-11.8987 -14.0453 0.949237
-13.803 -14.5047 1.32189
-12.3903 -14.2269 1.19654
-14.4585 -14.8321 1.77265
-14.2239 -14.0172 1.57634
-16.3035 -14.93 2.3046
-14.4056 -14.0885 1.65042
-16.2991 -14.918 2.31794
-16.1194 -14.8078 2.28325
-14.8907 -14.2272 1.88844
-13.828 -13.7543 1.52259
-15.3601 -14.4185 2.05883
-14.6305 -14.0704 1.83149
-15.8829 -14.6038 2.3045
-15.9637 -12.8606 1.25205
-16.2525 -12.9189 1.41427
-16.5696 -13.055 1.52489
-12.2008 -16.4289 -0.962925
-13.2575 -16.6387 -0.370631
-16.9148 -17.9581 1.19386
-12.2221 -16.0843 -0.645142
-16.9826 -17.8944 1.30659
-16.58 -17.689 1.18215
-14.9528 -16.3335 0.0935278
-12.6664 -16.0528 -0.283759
-16.5963 -17.5524 1.32393
-12.7403 -15.9016 -0.0741229
-12.0863 -15.442 -0.112055
-12.9318 -15.7594 0.211867
-13.0294 -15.3549 0.654735
-16.0264 -15.9364 1.63771
-15.1055 -15.4634 1.35756
-14.1844 -15.2535 1.1648
-14.4574 -15.1449 1.34239
-12.396 -14.5795 0.870544
-16.5416 -15.942 2.14972
-14.4795 -15.068 1.43288
-11.9553 -14.2295 0.838667
-14.9496 -15.0463 1.63661
-11.7579 -14.0481 0.844266
-16.0242 -15.4914 2.0327
-15.917 -15.4375 2.0097
-15.7903 -15.2671 1.85516
-15.6718 -15.1835 1.77989
-13.6922 -14.5426 1.28444
-13.6889 -14.4494 1.28925
-13.8073 -14.4826 1.32317
-15.7323 -14.6829 2.09952
-14.7972 -14.2752 1.7813
-14.961 -14.332 1.85013
-15.1435 -14.4122 1.92198
-14.0051 -13.901 1.52624
-16.1712 -13.0263 1.25246
-16.5849 -13.1233 1.481
-16.613 -13.1034 1.51641
-15.8725 -12.6649 1.36349
-16.3599 -12.8545 1.54602
-12.1465 -16.5637 -1.15066
-15.0815 -16.6834 -0.32055
-15.7946 -16.9736 0.240159
-15.6656 -16.9122 0.195721
-15.2776 -16.7387 0.0554985
-16.811 -17.8831 1.16212
-16.308 -17.1435 0.68603
-17.048 -17.8949 1.34443
-16.812 -17.6894 1.33901
-16.7437 -17.6456 1.33636
-12.2865 -15.0337 0.381939
-16.4932 -16.3992 1.85885
-16.5133 -16.4079 1.87201
-14.3716 -15.4227 1.14072
-16.4279 -16.2772 1.92297
-15.9136 -15.8009 1.68811
-14.99 -15.3942 1.33199
-16.37 -16.0454 2.06109
-11.9217 -14.1429 0.877494
-12.2752 -14.3062 1.02573
-12.4125 -14.3462 1.08903
-16.0575 -15.5134 2.04337
-15.8005 -15.2956 1.94466
-14.0871 -14.7083 1.59557
-16.0725 -15.4015 2.16364
-14.0891 -14.6894 1.6088
-14.1247 -14.7019 1.6363
-14.2802 -14.0284 1.6083
-16.6199 -13.2316 1.40461
-16.1948 -13.0375 1.2614
-16.3601 -12.8703 1.54274
-11.6852 -16.3843 -1.33795
-16.6336 -17.7556 1.14803
-17.0162 -17.9 1.32379
-12.2696 -16.0174 -0.542637
-16.106 -16.713 0.699016
-15.07 -16.2859 0.30574
-14.945 -16.2331 0.251242
-16.8024 -17.4671 1.59246
-15.2359 -15.8288 0.887709
-15.2254 -15.8098 0.91337
-12.6633 -15.2333 0.481383
-14.3641 -15.6474 0.916084
-12.7887 -15.2746 0.539655
-16.0964 -16.1129 1.50678
-15.0788 -15.6683 1.13658
-16.176 -16.227 1.77294
-16.0082 -15.9234 1.61778
-13.7738 -14.806 0.732426
-16.1 -15.6957 1.91651
-15.6849 -15.2827 1.60659
-15.7592 -15.2475 1.70383
-12.3967 -14.4011 1.04463
-14.9305 -15.07 1.60351
-15.6767 -15.1185 1.65163
-15.7658 -15.2281 1.80924
-15.7762 -15.2654 1.9258
-11.9801 -14.0619 1.04621
-15.2633 -15.0125 1.8449
-16.0402 -15.3542 2.18
-13.7178 -13.7216 1.46485
-14.1916 -13.8501 1.70376
-15.8504 -12.654 1.34118
-15.3934 -16.7814 0.125975
-16.2778 -17.1117 0.723843
-16.6262 -17.7128 1.17854
-15.0611 -16.3507 0.147158
-16.6181 -17.5891 1.30913
-16.6091 -17.5612 1.33074
-16.643 -16.7498 1.34654
-16.0749 -16.069 1.53275
-15.0583 -15.62 1.16642
-12.3633 -14.899 0.580868
-16.4463 -16.2396 1.97305
-14.9765 -15.4413 1.28898
-14.5048 -15.22 1.4462
-15.9454 -15.6195 1.85991
-16.436 -15.8976 2.24619
-12.4208 -14.252 1.18471
-15.8851 -15.2836 2.01447
-13.8401 -14.3705 1.46048
-13.8443 -13.7746 1.52104
-15.0807 -16.3304 0.238009
-12.1472 -15.5232 -0.15149
-15.034 -15.5751 1.19317
-12.2674 -14.3348 0.938193
-15.6892 -15.1694 1.85043
-11.9493 -14.0033 1.04291
-16.1328 -15.0705 2.28898
-16.0614 -17.0164 0.379464
-16.6429 -17.064 1.03104
-16.1407 -16.6384 0.813861
-15.1816 -16.0672 0.90033
-14.9716 -15.332 1.39095
-13.9631 -14.8975 1.31073
-12.5656 -14.4833 1.07614
-14.0374 -14.8792 1.40182
-12.6625 -14.5114 1.12236
-15.56 -14.5624 2.0964
-16.5619 -16.9509 1.09232
-16.1838 -16.6242 1.40299
-16.1861 -16.5845 1.44392
-16.128 -15.7316 1.88285
-13.6671 -14.7057 1.03323
-13.7248 -13.7538 1.41947
-16.2628 -17.1234 0.633425
-16.1298 -17.0726 0.723205
-16.3665 -15.887 2.19325
-16.4967 -15.9487 2.26428
-16.146 -16.3427 1.44553
-16.3618 -16.5304 1.61269
-15.8611 -15.3326 2.04963
-15.7065 -15.9146 1.51596
-13.7712 -14.6174 1.30589
-16.2618 -15.5384 2.32417
-16.1181 -16.4863 1.24958
-16.5702 -17.7066 1.15488
-16.5234 -16.1327 2.10415
-16.5265 -15.977 2.10275
-15.4906 -16.4235 0.74501
-15.2314 -16.4885 0.497182
-15.0292 -16.3447 0.171325
-16.0437 -15.7624 1.79814
-15.3612 -16.0394 1.00779
-15.9682 -15.6449 1.85205
-16.2693 -15.3432 2.3038
-15.6376 -15.6178 1.39843
-16.0684 -15.3904 2.16836
-15.7036 -15.3951 1.74968
-13.4442 -16.6826 -0.276759
-15.0155 -15.5598 1.20748
-14.3807 -15.9129 0.646486
-16.3261 -14.8197 2.43417
-16.1059 -14.8186 2.26892
-16.0959 -14.8142 2.25257
-16.1004 -14.7496 2.31727
-15.756 -14.5715 2.23272
-14.1781 -15.3516 1.07194
-15.1871 -14.3281 2.0269
-14.4019 -14.0892 1.65081
-14.4058 -14.0821 1.66348
-14.0289 -13.8395 1.59652
-15.8779 -12.659 1.37407
-16.5682 -17.7114 1.14023
-16.5671 -17.6914 1.16466
-16.7221 -17.1761 1.74152
-16.3229 -17.1859 0.699627
-16.3241 -16.91 1.19471
-16.3771 -16.7745 1.34174
-16.5956 -16.6558 1.63936
-16.5835 -16.6544 1.62612
-16.3772 -16.7609 1.35323
-16.4051 -16.2757 1.9123
-15.5852 -16.6539 0.621443
-16.5585 -15.9629 2.14386
-16.1279 -16.0977 1.55927
-15.6555 -16.3185 0.988549
-15.352 -16.0401 0.992084
-15.6668 -15.7576 1.48298
-15.6222 -15.7377 1.3184
-16.0674 -15.4597 2.11833
-15.5373 -15.5464 1.68428
-15.5151 -15.53 1.66666
-13.388 -16.7103 -0.326491
-13.4902 -16.6262 -0.183562
-15.6748 -15.328 1.57582
-15.7837 -15.2553 1.79101
-15.6748 -15.2773 1.57285
-14.3712 -15.9649 0.595591
-14.3741 -15.8761 0.661347
-12.5795 -16.7743 -1.02587
-15.2699 -15.003 1.85738
-14.3869 -15.4435 1.14476
-15.2552 -14.9597 1.8931
-15.0506 -15.0231 1.74365
-15.0353 -15.0144 1.72195
-13.0004 -16.0467 0.00914453
-14.0613 -15.4296 0.837247
-14.8983 -14.9965 1.63887
-14.0613 -15.4102 0.875536
-12.8929 -16.0135 -0.0624064
-14.0546 -15.3989 0.862256
-14.0628 -15.2332 1.04401
-11.6963 -16.2304 -1.1775
-14.4463 -14.8388 1.75484
-11.364 -16.2832 -1.46681
-11.3626 -16.2692 -1.45542
-12.0071 -15.3912 -0.174365
-11.8568 -15.3292 -0.228334
-16.252 -12.9198 1.41443
-15.8536 -12.9309 1.10774
-15.8562 -12.8937 1.14013
-11.9129 -13.6168 1.35837
-17.1654 -18.1208 1.23968
-16.9182 -17.9584 1.19755
-16.5787 -17.6841 1.18431
-16.6271 -17.5576 1.3406
-16.3512 -17.2218 0.654979
-16.3803 -16.9669 1.03973
-15.7688 -17.0435 0.0809493
-16.2196 -16.8223 1.23803
-16.1449 -16.6382 0.795869
-16.2516 -16.59 1.49724
-15.2782 -16.7728 -0.249081
-16.5545 -16.11 2.12991
-16.0697 -16.0959 1.49157
-16.2107 -15.854 2.14758
-15.0192 -16.339 0.184143
-14.8312 -16.4285 -0.0170657
-15.0137 -16.3143 0.166669
-14.9424 -16.324 0.101363
-16.1204 -15.7036 1.91159
-16.1406 -15.5267 2.10395
-15.9755 -15.5066 2.00125
-16.342 -15.254 2.33818
-15.5378 -15.5365 1.69994
-15.7017 -15.325 1.62259
-15.8062 -15.2893 1.885
-14.9045 -15.6353 0.986614
-15.0173 -15.5152 1.23285
-12.5563 -16.7663 -1.02651
-15.0114 -15.3967 1.36448
-12.7239 -16.4181 -0.565318
-13.0172 -16.2131 -0.159816
-14.8705 -15.2119 1.42065
-15.0423 -15.1106 1.65668
-14.3818 -15.4667 1.09981
-14.9523 -15.0483 1.63421
-12.192 -16.4335 -0.966863
-12.461 -16.2894 -0.663122
-14.4286 -15.225 1.34064
-14.4577 -15.1477 1.34234
-12.6522 -16.0578 -0.288163
-12.7603 -15.9113 -0.0599952
-12.7191 -15.9091 -0.108954
-14.5137 -14.9102 1.74015
-12.3933 -15.8488 -0.30761
-12.939 -15.5757 0.380007
-11.8119 -15.8246 -0.722518
-14.1214 -14.7024 1.63666
-14.0957 -14.6917 1.6123
-12.1037 -15.1591 0.114342
-13.8237 -14.3627 1.56194
-12.2929 -15.0181 0.39749
-12.3166 -14.8635 0.586803
-14.011 -13.9044 1.52689
-12.4663 -14.1271 1.31286
-11.9805 -14.2074 0.934237
-12.0092 -13.8846 1.19004
-11.8856 -13.4073 1.5561
-17.1384 -18.1123 1.21069
-16.2505 -17.9197 0.722665
-16.5645 -17.6908 1.15383
-16.3231 -17.1679 0.669303
-16.1749 -16.8585 0.555763
-16.0063 -16.7567 0.561093
-16.4994 -16.4004 1.85096
-16.0886 -15.8847 1.71906
-15.8714 -15.9723 1.47704
-16.0111 -15.8419 1.69855
-16.144 -15.7097 1.9254
-15.1795 -16.0447 0.876021
-14.5103 -16.3811 0.0145004
-15.8994 -15.6099 1.8386
-16.0945 -15.4944 2.11618
-15.9895 -15.4581 2.04995
-15.9717 -15.4651 2.02956
-15.8354 -15.3959 1.96178
-15.8249 -15.318 1.96056
-15.81 -15.3003 1.85742
-15.734 -15.3 1.69184
-15.6901 -15.2881 1.60711
-15.7866 -15.2325 1.73369
-14.9483 -15.5799 1.09937
-15.6805 -15.165 1.8437
-12.4757 -16.7832 -1.09239
-14.9838 -15.4159 1.28593
-12.8435 -16.1376 -0.219979
-14.8838 -15.0452 1.59102
-12.4112 -16.1742 -0.579754
-12.4458 -15.9289 -0.333196
-13.772 -14.8091 0.68696
-11.8769 -15.5368 -0.415876
-11.4374 -15.5909 -0.788386
-16.6151 -13.1292 1.49646
-13.9231 -14.2526 1.44684
-11.9051 -15.0505 0.0208
-11.4933 -14.693 0.0994955
-12.3802 -13.6888 1.64249
-12.0661 -13.8243 1.306
-12.0582 -13.8041 1.33343
-12.0747 -13.6766 1.46478
-11.7442 -13.3421 1.49641
-16.6836 -17.2689 0.83689
-16.7135 -17.3953 1.57318
-16.1361 -16.9892 0.423247
-15.9364 -16.7453 0.500837
-16.1268 -16.1536 1.45603
-15.9311 -15.9713 1.50104
-16.131 -15.7741 1.8606
-15.1053 -16.2661 0.351581
-15.9664 -15.6711 1.82566
-14.4946 -16.4172 -0.0386984
-15.2122 -15.7825 0.885585
-15.8828 -15.4276 1.99648
-15.9034 -15.3882 2.05715
-13.0592 -16.9744 -0.833035
-15.836 -15.3603 1.97633
-15.756 -15.2983 1.72379
-15.6918 -15.203 1.78449
-14.9674 -15.4021 1.28866
-15.1086 -15.3257 1.49819
-14.9497 -15.1839 1.51226
-14.3842 -15.4238 1.14133
-15.1364 -14.959 1.86263
-14.9054 -14.976 1.66242
-14.1405 -15.2281 1.14298
-14.3471 -14.9918 1.49341
-12.4322 -15.3914 0.147492
-12.0836 -15.446 -0.16094
-16.5947 -13.122 1.48198
-12.3292 -14.8991 0.570964
-12.3044 -14.8616 0.507733
-11.9503 -14.9112 0.237444
-12.3652 -13.6196 1.71079
-16.1286 -16.3878 1.26104
-16.1411 -16.1073 1.54915
-15.6248 -16.3412 0.942896
-16.1503 -15.8963 1.76203
-15.2318 -16.3669 0.595674
-16.0027 -15.9282 1.62177
-15.1897 -16.3478 0.609955
-14.886 -16.303 0.0790851
-16.0324 -15.5189 2.0249
-16.1159 -15.0584 2.27364
-15.7301 -15.2204 1.78955
-16.0836 -15.0028 2.21617
-15.0579 -15.4456 1.33608
-14.8984 -15.506 1.17286
-16.0787 -14.8529 2.22106
-12.5132 -16.7959 -1.06398
-14.9629 -15.2413 1.47059
-12.4527 -16.5015 -0.852719
-14.9076 -15.1905 1.46909
-13.7448 -14.8011 0.825008
-13.6934 -14.5794 1.3059
-12.4698 -14.9127 0.627803
-12.6182 -14.1961 1.41411
-11.9443 -14.4615 0.625107
-11.9534 -14.2204 0.852304
-16.0789 -17.1296 0.297197
-16.1038 -17.0174 0.387576
-16.3711 -16.6252 1.5593
-16.3661 -16.2098 1.93648
-16.0503 -16.0165 1.56186
-14.4319 -16.553 -0.522255
-16.1236 -14.7575 2.3351
-15.5496 -14.5616 2.09206
-11.4545 -15.6216 -0.791313
-14.4234 -14.0762 1.68194
-16.2529 -13.0018 1.33717
-13.8534 -13.8251 1.47977
-12.3664 -14.4314 0.986401
-12.0197 -14.2225 0.908487
-16.6025 -16.9887 1.07004
-16.5473 -16.696 1.36646
-16.2229 -16.5752 1.44785
-14.8708 -16.3478 0.0730112
-15.0988 -15.7918 0.97847
-15.5007 -14.5428 2.04746
-17.0638 -17.8446 1.4124
-15.4891 -16.5643 0.57686
-15.4471 -16.5121 0.525374
-15.8578 -15.7823 1.65116
-13.8915 -14.392 1.64826
-12.4412 -14.4259 1.04928
-13.7315 -13.704 1.48958
-15.0809 -16.0256 0.521076
-12.566 -15.2051 0.324449
-16.4787 -17.0514 0.911154
-16.2854 -17.0546 0.901427
-15.8808 -15.329 2.05816
-14.3137 -15.1363 1.31562
-16.3269 -16.537 1.60781
-14.8724 -16 0.461442
-16.0117 -15.1257 2.19594
-15.7258 -16.3903 0.835688
-15.2838 -16.3856 0.627139
-14.0214 -15.7964 0.30406
-14.0079 -15.2019 0.898239
-14.1581 -16.0055 -0.120597
-17.0407 -17.7684 1.44912
-16.8952 -17.4729 1.60729
-16.7787 -17.4151 1.60197
-16.8238 -17.9344 1.14937
-16.8206 -17.9436 1.13915
-16.6132 -16.6741 1.6259
-16.5323 -15.9516 2.13141
-16.5819 -16.6744 1.59917
-16.4573 -16.6657 1.43429
-16.2836 -17.7682 0.879929
-16.2977 -16.9083 1.17045
-16.0964 -14.8161 2.25433
-15.9669 -15.6537 1.86685
-15.6664 -15.4885 1.91772
-15.7562 -14.5727 2.23275
-15.6668 -15.7591 1.48306
-15.5973 -15.8616 1.36757
-15.6653 -15.2723 1.56587
-15.6368 -15.6624 1.37165
-15.5353 -14.5728 2.06716
-15.4888 -15.9719 1.16932
-15.3668 -15.6029 1.40186
-15.4926 -16.4231 0.745862
-15.0416 -15.2024 1.56706
-15.2319 -16.4896 0.49736
-14.9656 -14.3263 1.86166
-15.1553 -16.422 0.146633
-14.373 -16.0452 0.517528
-14.318 -15.7128 0.560835
-14.0656 -15.2493 1.03088
-14.064 -15.2634 1.0195
-13.882 -14.3112 1.44996
-13.4421 -16.6148 -0.198035
-13.4437 -16.6849 -0.276421
-17.0427 -17.8979 1.34279
-16.6974 -17.6436 1.29879
-16.7118 -17.88 1.10126
-16.6721 -18.0128 0.943888
-16.5593 -15.9632 2.14468
-16.5698 -17.6903 1.16705
-16.5714 -17.7127 1.14165
-16.584 -16.6556 1.62453
-16.5665 -17.9431 0.918874
-16.4643 -17.7721 1.01834
-16.4059 -16.2789 1.91194
-16.4052 -16.6188 1.53449
-16.4423 -16.6559 1.45284
-16.2829 -17.7264 0.915618
-16.3277 -14.8207 2.43274
-16.311 -14.957 2.30019
-16.3052 -14.935 2.30543
-16.3155 -16.9185 1.17184
-16.281 -14.9016 2.31326
-16.3174 -17.1444 0.723188
-15.9883 -15.6723 1.84066
-16.1553 -16.8245 0.561039
-15.7644 -15.2161 1.8424
-15.7817 -15.2557 1.79068
-15.7223 -14.6723 2.10586
-15.6214 -15.476 1.72223
-15.6602 -15.7422 1.4856
-15.6942 -14.7236 2.03445
-15.6823 -15.3408 1.5872
-15.8672 -17.0015 0.267254
-15.3823 -14.4408 2.06069
-15.4497 -16.6776 0.494433
-15.1256 -14.9651 1.85951
-16.3316 -13.1275 1.27371
-15.0838 -16.6523 -0.0176821
-14.4718 -15.0561 1.41815
-14.6059 -14.1976 1.69788
-14.3723 -15.9671 0.594425
-14.3307 -15.7148 0.784807
-14.065 -15.2345 1.0429
-14.0462 -15.1428 1.11625
-14.0572 -15.3251 0.957314
-13.9338 -14.2586 1.47843
-14.2606 -16.0887 -0.0560476
-13.913 -14.2773 1.43928
-13.8747 -14.3008 1.4389
-13.8054 -14.486 1.32637
-13.7056 -14.7066 1.25441
-13.7818 -14.4419 1.3298
-13.8319 -13.8405 1.44562
-13.3712 -15.9263 0.372075
-13.4648 -16.7444 -0.300102
-13.6989 -13.6821 1.49264
-12.7487 -14.3942 1.31701
-12.3893 -15.8055 -0.266426
-11.9913 -13.4508 1.58009
-12.358 -16.0946 -0.557987
-11.9135 -13.62 1.35905
-12.2067 -16.1741 -0.743819
-16.9978 -17.6736 1.49442
-16.8177 -17.6312 1.40614
-16.5567 -16.106 2.12963
-16.5445 -15.9474 2.136
-16.5444 -17.6965 1.13006
-16.3891 -16.6098 1.52733
-16.2449 -16.5726 1.49974
-16.068 -15.4623 2.11784
-16.1213 -14.8086 2.28571
-16.0392 -15.9661 1.60231
-15.999 -14.6064 2.37353
-15.8979 -15.411 2.02088
-15.7223 -15.3347 1.68484
-15.5117 -14.5711 2.04112
-15.7709 -17.0429 0.0809354
-15.3644 -14.422 2.05759
-15.0528 -15.0271 1.74333
-15.0429 -15.1133 1.65661
-15.0261 -15.0202 1.70719
-14.9509 -15.0481 1.63588
-14.902 -14.8294 1.79561
-14.9452 -15.3831 1.31128
-14.7836 -14.1468 1.8699
-14.4478 -14.8414 1.75368
-14.4888 -15.0897 1.42149
-14.9621 -16.1079 0.297807
-14.4707 -15.1379 1.36088
-14.4134 -15.3399 1.26019
-15.8741 -12.6676 1.36323
-14.1859 -15.2836 1.14125
-13.8281 -14.3645 1.56278
-13.9074 -14.296 1.45531
-13.9309 -14.2406 1.46666
-13.6928 -14.4366 1.2927
-13.3463 -15.9749 0.303488
-12.9774 -15.3426 0.616157
-13.1332 -16.2838 -0.144998
-12.6384 -14.06 1.42724
-12.9311 -16.5235 -0.486415
-12.6018 -14.7413 0.908989
-12.6635 -16.1151 -0.329422
-12.3616 -14.5814 0.846965
-12.3157 -14.4156 0.954489
-12.3077 -15.0837 0.344482
-12.2881 -15.0363 0.379325
-12.2915 -15.0945 0.312239
-12.4822 -16.3717 -0.719984
-12.3791 -15.919 -0.403516
-12.3674 -16.0382 -0.508123
-12.0742 -15.4666 -0.218618
-17.0432 -17.84 1.38267
-16.5645 -17.6943 1.15106
-16.5546 -17.6775 1.16279
-16.5446 -16.665 1.59503
-16.4281 -16.2787 1.92652
-16.3237 -15.3063 2.31923
-16.12 -15.7036 1.91398
-16.0131 -15.8417 1.70088
-15.891 -15.6701 1.78034
-16.1731 -16.8309 0.579259
-16.1749 -16.8564 0.558759
-15.639 -15.121 2.0292
-15.9345 -16.7644 0.474773
-15.1963 -16.0545 0.894835
-15.2706 -16.7255 0.082916
-14.8704 -15.2204 1.41698
-14.3934 -15.3275 1.24408
-14.0916 -14.6926 1.61129
-13.8114 -14.4633 1.32752
-12.609 -15.4073 0.294679
-12.3006 -14.2414 1.08552
-12.0599 -13.8998 1.20371
-11.9506 -14.1602 0.917267
-12.1059 -15.539 -0.199814
-11.9446 -14.5106 0.587618
-12.2366 -16.598 -1.10229
-11.6245 -13.4301 1.31776
-12.1206 -16.6231 -1.23188
-16.7246 -17.3913 1.56283
-16.6645 -17.7692 1.15545
-16.61 -17.5873 1.30606
-16.4651 -16.2438 1.98029
-16.3302 -15.6845 2.40433
-16.2806 -16.2902 1.31059
-16.0974 -16.0381 1.58922
-16.0734 -16.0208 1.5831
-16.0754 -16.0914 1.49383
-15.9249 -15.4236 2.02881
-15.9998 -14.7016 2.2697
-15.9183 -15.8056 1.68396
-16.2026 -16.9133 0.517921
-16.0765 -16.7048 0.67823
-15.7485 -15.2626 1.70851
-15.7255 -15.2732 1.66759
-15.6262 -14.6668 2.02805
-15.6416 -16.8822 0.210411
-15.0952 -15.4427 1.37649
-15.2308 -16.5048 0.482222
-15.06 -15.5714 1.21752
-15.0705 -16.3173 0.26932
-14.7793 -14.1669 1.85117
-15.0371 -16.6175 -0.00782268
-14.449 -15.1575 1.34219
-13.1731 -16.1178 0.0672619
-12.6963 -14.5299 1.15292
-12.4225 -14.2518 1.17869
-12.3947 -14.1217 1.25636
-12.5745 -16.3166 -0.571602
-12.5207 -16.2854 -0.613161
-12.1013 -13.9138 1.22082
-11.9438 -14.0823 0.945059
-11.9409 -14.0269 0.971992
-11.9758 -14.5743 0.54989
-16.6639 -17.1985 1.68186
-16.5131 -16.4453 1.81675
-16.1322 -15.7809 1.85259
-16.0955 -14.7289 2.32739
-16.1144 -16.1185 1.5013
-16.127 -16.1528 1.45904
-16.0247 -16.6993 0.667823
-15.6236 -15.098 1.66715
-15.1199 -15.6697 1.17345
-15.0019 -15.079 1.65373
-14.9964 -15.2207 1.52697
-15.1043 -15.7056 1.09093
-14.9811 -15.2865 1.4466
-15.0952 -15.7367 1.04176
-14.9723 -15.2379 1.47192
-14.9366 -15.1697 1.50223
-14.9695 -15.5744 1.14623
-14.9017 -15.3552 1.31859
-14.3737 -15.533 0.993555
-15.8508 -12.6586 1.34433
-14.1862 -15.5317 0.898019
-13.7288 -14.6468 1.32461
-13.8366 -14.823 0.824864
-12.631 -15.1876 0.481781
-12.4193 -14.295 1.13844
-12.4359 -15.3821 0.156923
-11.9493 -14.2199 0.860348
-16.0778 -14.8528 2.2229
-16.0415 -15.9065 1.66235
-15.8905 -15.436 1.99525
-15.7651 -15.2139 1.8778
-15.5497 -14.5634 2.09724
-14.1603 -14.8025 1.58065
-14.3576 -15.7792 0.684373
-14.4286 -14.0726 1.68942
-14.0418 -15.0457 1.25266
-14.3371 -16.1248 0.0694467
-13.8291 -14.7769 1.33816
-14.2744 -16.0513 0.0948739
-12.5785 -14.4893 1.06798
-12.4196 -16.2858 -0.669922
-15.6053 -15.8318 1.35977
-15.5505 -16.5897 0.653377
-14.989 -15.3368 1.3814
-15.1233 -15.7493 0.929317
-11.6716 -13.3084 1.474
-16.1596 -15.5941 2.04933
-16.1303 -15.9663 1.68254
-15.4901 -14.5343 2.04987
-15.322 -14.47 2.01738
-13.6573 -14.6059 1.11688
-15.6656 -14.637 2.10516
-15.6305 -15.6229 1.51728
-15.595 -16.4372 0.810113
-15.4792 -15.9215 1.23345
-15.0925 -16.3275 0.228455
-16.5808 -16.6345 1.46639
-16.3595 -16.9282 1.13782
-14.3629 -15.5543 1.03791
-16.0421 -16.2154 1.33781
-16.0322 -17.0618 0.297122
-16.3906 -16.6279 1.46574
-13.6025 -14.8328 0.693035
-16.1026 -14.7486 2.31989
-16.3049 -14.9331 2.30704
-16.3513 -15.2876 2.42498
-15.7576 -14.5728 2.23401
-15.5374 -14.5723 2.0678
-16.538 -15.9249 2.17198
-15.1884 -14.3293 2.02843
-16.5078 -15.9422 2.13508
-16.4957 -15.9563 2.09747
-15.8093 -15.311 1.90865
-15.7491 -15.2056 1.85165
-15.775 -15.23 1.83506
-15.7041 -15.3964 1.75106
-15.6645 -15.2825 1.56029
-16.6148 -16.6736 1.62758
-16.5833 -16.6753 1.60074
-15.7038 -15.7693 1.51317
-15.1222 -15.3169 1.51533
-13.8595 -14.3258 1.46761
-15.3775 -15.6178 1.40486
-16.4619 -16.7491 1.35124
-16.2139 -16.6156 1.33245
-16.9792 -17.704 1.46899
-16.9518 -17.6911 1.45223
-17.056 -17.8507 1.41976
-15.0178 -15.5606 1.2089
-14.3982 -15.3431 1.24776
-15.5076 -16.0169 1.11953
-17.1687 -18.1318 1.21813
-16.9267 -17.9551 1.18192
-16.9192 -17.9687 1.1684
-16.5634 -17.7011 1.15594
-14.0659 -15.2637 1.01876
-16.7243 -17.9132 1.08021
-12.6632 -14.5117 1.12164
-16.6186 -17.8545 1.04869
-16.5104 -17.7807 1.04827
-14.3699 -15.8913 0.651946
-14.3824 -15.915 0.645846
-15.2293 -16.4997 0.490267
-14.3706 -16.0311 0.530449
-11.9389 -14.5428 0.557666
-11.9394 -14.5705 0.52849
-15.7709 -17.0241 0.223073
-15.1534 -16.4223 0.149708
-12.4723 -16.406 -0.753716
-16.3273 -14.8206 2.43559
-15.8782 -12.6604 1.37575
-16.292 -14.9182 2.30904
-16.1202 -14.8099 2.28462
-16.1074 -14.8197 2.27028
-15.7514 -14.7058 2.11154
-16.5226 -15.9198 2.16336
-15.8379 -15.2381 2.04485
-15.7991 -15.2729 1.87382
-15.7855 -15.2577 1.86609
-15.7836 -15.2775 1.80895
-15.2594 -14.9606 1.88711
-16.4055 -16.278 1.91232
-15.5315 -15.5333 1.693
-15.5332 -15.5464 1.68411
-15.5189 -15.5329 1.67127
-13.8311 -13.8418 1.44686
-15.6646 -15.7599 1.48482
-16.8792 -17.467 1.60176
-16.2446 -16.677 1.39439
-14.4346 -15.2077 1.34427
-16.8185 -17.631 1.40514
-14.8542 -15.4083 1.22915
-15.5855 -16.0778 1.18204
-16.6545 -17.5668 1.35371
-16.3227 -16.9107 1.19453
-15.4975 -16.0155 1.10911
-16.6992 -17.6429 1.29898
-16.8899 -17.8392 1.27208
-12.6436 -14.2657 1.31836
-14.3881 -15.4438 1.14772
-16.8769 -17.9456 1.18299
-14.0452 -15.15 1.09379
-17.0013 -18.0684 1.1317
-15.0659 -15.8902 0.861653
-12.3212 -14.362 1.03662
-15.492 -16.421 0.744812
-12.3474 -14.5897 0.85055
-14.3824 -15.8914 0.671452
-15.228 -16.5081 0.479632
-12.4728 -15.3704 0.211918
-11.4917 -14.7114 0.0884045
-13.578 -16.6127 -0.111531
-12.4238 -16.7517 -1.0903
-11.678 -16.387 -1.3448
-11.6496 -16.3838 -1.36979
-16.5445 -13.132 1.44035
-15.8745 -12.6684 1.36401
-16.2739 -15.7051 2.33437
-15.9657 -15.1613 2.16797
-15.5333 -14.5819 2.05616
-15.8173 -15.3592 1.94588
-15.8063 -15.2919 1.88989
-15.7126 -15.1916 1.8211
-14.799 -14.2785 1.78145
-15.6751 -15.1876 1.78102
-15.7744 -15.2702 1.76154
-15.6947 -15.3429 1.61557
-15.0244 -15.0234 1.70502
-14.4507 -14.8405 1.75582
-14.9513 -15.0469 1.63746
-15.5483 -15.5971 1.60412
-15.4779 -15.5489 1.60789
-13.6993 -13.6825 1.49619
-16.7207 -17.1676 1.75183
-15.6648 -15.7858 1.48708
-16.3753 -16.6046 1.54699
-13.9163 -14.2758 1.49587
-16.7423 -17.4073 1.56853
-14.4809 -15.0696 1.43381
-13.8102 -14.4666 1.32708
-14.4564 -15.148 1.34402
-15.0059 -15.4941 1.27389
-14.4514 -15.178 1.3424
-12.3469 -13.7812 1.54508
-13.6947 -14.4347 1.29297
-17.0361 -17.8641 1.34925
-16.5804 -17.5341 1.32984
-16.5933 -17.5579 1.32761
-15.0622 -15.6532 1.1202
-12.5866 -14.1473 1.36194
-12.7823 -14.3966 1.33608
-17.1665 -18.1158 1.24273
-14.9467 -15.6055 1.06645
-16.3851 -16.9661 1.04385
-16.6974 -17.7612 1.20262
-16.7824 -17.8767 1.15124
-12.0225 -13.887 1.19122
-12.699 -14.4931 1.15466
-16.5691 -17.9423 0.919181
-12.3146 -14.4155 0.955922
-15.5779 -16.5603 0.692077
-16.2699 -17.7979 0.838765
-16.1574 -16.8212 0.565495
-12.396 -14.6067 0.859717
-11.7501 -14.0516 0.846532
-12.4079 -14.6251 0.842988
-15.1076 -16.3473 0.208205
-14.9431 -16.3259 0.102023
-11.9261 -14.9097 0.200578
-12.978 -16.0325 0.00175492
-12.9963 -16.1935 -0.145295
-12.3856 -15.9049 -0.38625
-12.5521 -16.2846 -0.581885
-11.8095 -15.8262 -0.724842
-12.1993 -16.1445 -0.730603
-11.3841 -16.068 -1.24744
-15.825 -12.4297 1.40922
-16.0407 -15.4727 2.07132
-15.9355 -15.4302 2.06606
-15.8007 -15.2947 1.94385
-15.6877 -15.1101 1.67077
-15.6772 -15.1205 1.65364
-16.4764 -16.3763 1.85866
-14.2732 -13.9347 1.7004
-15.0448 -15.1531 1.59956
-15.6519 -15.8072 1.46861
-14.4887 -15.14 1.4927
-14.9938 -15.395 1.3343
-14.8974 -15.351 1.32509
-15.0135 -15.4392 1.30361
-15.5828 -15.9716 1.29045
-13.8137 -14.4676 1.32547
-13.6823 -14.5453 1.29047
-17.0241 -17.8797 1.33407
-12.0791 -13.7443 1.40362
