-13.3253 -16.1757 -0.306773
-13.3757 -16.2369 -0.31727
-16.2798 -17.1941 1.24863
-15.3568 -16.6773 0.781981
-16.5121 -17.2305 1.1975
-16.4626 -17.2194 1.13164
-16.2197 -17.1626 0.880998
-15.6922 -16.7227 0.644653
-16.3695 -17.1925 0.702036
-16.4887 -17.1975 0.566521
-16.4072 -17.1793 0.512505
-15.8082 -16.3656 0.209279
-16.6149 -17.2056 0.3721
-16.6351 -17.2053 0.38066
-16.5139 -17.1806 0.19856
-14.801 -16.1298 -0.860375
-13.9806 -16.5147 -3.27458
-12.8214 -14.0369 1.45946
-14.0939 -16.3436 1.34515
-14.9318 -16.6914 1.43503
-14.6203 -16.6092 1.23203
-14.8304 -16.6518 1.27601
-12.632 -15.6964 0.19855
-15.04 -16.7078 1.34429
-14.5081 -16.3933 1.0258
-14.0343 -16.0307 0.711846
-13.8059 -16.2063 0.105
-13.3123 -16.2038 -0.245419
-13.3569 -16.2415 -0.270291
-13.3308 -16.1924 -0.290967
-13.9592 -16.224 0.101929
-15.3959 -16.7026 0.76149
-16.4659 -17.2379 1.22486
-16.5341 -17.2432 1.23619
-16.6147 -17.2858 1.22214
-16.5911 -17.2501 1.0084
-16.7023 -17.2686 0.966949
-16.3541 -17.1832 0.714897
-16.3769 -17.1825 0.696792
-16.3178 -17.1662 0.549457
-16.3275 -17.1565 0.535988
-14.1321 -16.3482 -0.941506
-15.7793 -16.3435 0.204551
-16.5239 -17.1783 0.18695
-16.5401 -17.183 0.196013
-14.3025 -16.6151 -2.5963
-14.19 -16.5641 -3.09781
-12.7754 -14.0307 1.63576
-13.6333 -15.9616 1.55551
-13.2733 -15.8841 1.24326
-13.7899 -16.2332 1.38026
-13.6727 -16.1955 1.01011
-14.9202 -16.6931 1.47506
-12.5817 -15.686 0.171998
-14.5186 -16.3952 1.01025
-14.0454 -16.0706 0.763766
-14.0519 -16.0604 0.710808
-14.6191 -16.4046 0.931138
-12.5274 -16.1431 -0.53928
-13.8167 -16.2081 0.0891122
-13.8742 -16.1732 0.0107724
-13.9209 -16.2181 0.011898
-13.504 -16.3139 -0.438454
-11.756 -16.2159 -1.57463
-13.4934 -16.2977 -0.461413
-16.3672 -17.2035 1.11403
-16.3803 -17.2033 1.09929
-16.5952 -17.246 1.17062
-11.6385 -16.1575 -1.93264
-16.5816 -17.2274 0.887627
-16.6463 -17.2477 0.812837
-12.0364 -16.2405 -2.07429
-16.334 -17.1543 0.333031
-16.0333 -16.6206 0.340206
-16.0526 -16.6076 0.339771
-15.698 -16.3556 0.18588
-16.0799 -16.6121 0.324086
-12.3495 -16.2478 -2.39451
-12.5138 -16.3251 -2.55932
-13.7178 -16.4632 -3.39087
-14.0497 -16.5066 -3.73116
-14.0709 -16.4987 -3.75103
-13.9018 -16.4368 -4.30592
-13.6614 -15.9856 1.75651
-14.3204 -16.6105 1.68657
-12.7217 -13.9908 0.978997
-14.1066 -16.3435 1.32994
-14.2102 -16.3532 1.2509
-14.2692 -16.3476 1.20691
-14.4105 -16.3776 1.21877
-15.5621 -17.0729 1.46822
-15.5922 -17.0854 1.45501
-14.5848 -16.3963 0.936482
-12.2988 -15.6093 -0.258013
-14.6354 -16.407 0.910092
-13.5956 -16.1597 0.0539888
-15.6593 -16.6038 1.03295
-16.6145 -17.2558 1.17908
-13.1891 -16.2037 -0.770745
-16.6244 -17.2521 1.15938
-11.6274 -16.1812 -1.84497
-16.4041 -17.2037 1.00578
-15.9019 -16.6118 0.733778
-11.9776 -16.2192 -2.09218
-15.5769 -16.3554 0.344345
-13.6266 -16.4499 -3.30674
-14.2582 -16.5958 -2.93589
-13.9819 -16.515 -3.222
-13.5369 -16.4151 -3.8315
-13.9883 -16.2959 1.15658
-13.9023 -16.1871 1.02252
-14.3155 -16.3564 1.2111
-12.9095 -15.7721 0.470676
-13.9571 -16.0829 0.935718
-14.0124 -16.1615 0.847601
-14.0291 -16.0854 0.798058
-14.8094 -16.4276 0.904958
-12.4421 -15.9321 -0.573866
-15.2438 -16.6952 0.872251
-15.1671 -16.3715 0.827883
-12.6222 -16.0958 -0.7949
-13.5333 -16.3168 -0.456039
-14.2309 -16.1952 -0.141954
-13.0996 -15.8209 -1.22199
-15.6425 -16.3719 0.276771
-15.0965 -16.3941 -0.169996
-16.0939 -16.5749 0.310384
-15.9958 -16.3991 0.0590756
-12.3287 -16.2353 -2.852
-13.5365 -16.4969 -2.22708
-15.5383 -16.29 -0.780619
-15.3938 -16.2492 -0.968638
-15.2408 -16.1217 -1.6257
-12.9851 -15.8184 0.906367
-12.1288 -15.562 -0.554919
-13.7606 -16.1951 0.194058
-13.9639 -16.2313 -0.0106401
-14.1032 -16.2259 -0.0971041
-16.3932 -17.1911 0.759276
-11.7848 -16.149 -2.07316
-16.3494 -17.1808 0.453304
-12.0276 -16.1856 -2.6482
-16.1817 -16.6246 0.157047
-15.6721 -16.3254 -0.600856
-14.6508 -16.6882 -2.40055
-14.4204 -16.6222 -3.11608
-14.1074 -16.5173 -3.67038
-13.9688 -15.9909 0.823341
-12.4232 -15.8604 -0.450303
-12.5874 -16.0149 -0.67066
-13.1815 -15.9169 -1.23168
-15.8368 -16.3615 0.115915
-15.7515 -16.3203 -0.0338936
-13.5808 -16.5179 -2.17358
-13.0299 -16.3797 -3.0745
-14.7527 -16.4167 0.857175
-13.8674 -16.4792 -3.30479
-14.1417 -16.335 1.44421
-14.4376 -16.3743 1.18046
-14.5561 -16.3892 1.12361
-14.4965 -16.3358 0.498755
-15.9439 -16.6299 0.878746
-14.3722 -16.5425 -3.81507
-12.4351 -16.0607 -0.38896
-16.0051 -16.6428 0.828567
-14.8083 -16.3294 -0.344654
-14.399 -16.2302 -1.29501
-16.0618 -16.5534 0.262102
-15.2283 -16.6934 1.04527
-15.0827 -16.5298 0.819654
-16.1435 -17.2323 1.11389
-14.9711 -16.1154 -0.979392
-14.6567 -16.4097 1.00289
-14.5514 -16.3825 0.864184
-13.2387 -15.8614 1.02207
-16.5643 -17.2264 0.904844
-15.696 -16.3569 0.184804
-15.5889 -17.0854 1.45561
-14.0564 -16.3248 0.644756
-14.0061 -16.2096 0.855912
-14.0044 -16.2362 0.875865
-13.2843 -16.1366 0.440259
-13.6316 -15.9571 1.53724
-16.6254 -17.2009 0.400939
-13.4838 -16.3726 -3.85309
-13.5602 -16.4497 -3.08537
-14.1718 -16.3449 -0.978944
-15.1015 -16.7036 1.32411
-14.3663 -16.3132 0.580067
-12.3651 -15.9749 -0.497039
-13.3281 -15.8949 1.46948
-13.088 -14.0853 1.40395
-16.058 -16.592 0.299857
-15.1656 -16.369 0.82963
-12.9643 -16.378 -2.4646
-13.1004 -15.826 -1.22698
-14.1624 -16.3366 1.23592
-14.0244 -16.2254 1.67988
-13.7895 -16.1473 1.41212
-15.9926 -16.4113 0.062468
-15.7475 -16.3427 0.100337
-14.9895 -16.128 -0.946504
-13.3552 -16.4519 -2.3895
-12.5513 -16.289 -2.49447
-13.8109 -16.1949 0.0387354
-13.9854 -16.0454 0.872305
-13.9764 -16.039 0.914775
-14.0999 -16.3291 1.28197
-12.1521 -15.5606 -0.50479
-12.2729 -15.5987 -0.291962
-15.6757 -16.3375 0.0497106
-15.037 -16.6951 1.27698
-15.0048 -16.7077 1.42611
-13.9321 -16.2084 1.14956
-13.5603 -15.9368 1.3546
-13.1055 -16.4158 -2.29836
-14.6191 -16.4031 1.0893
-12.3995 -15.9667 -0.54059
-16.1438 -16.5901 0.190181
-16.6351 -17.2439 1.051
-12.8475 -16.1035 -0.505569
-13.9538 -16.312 1.29878
-14.153 -16.5305 -2.9362
-14.016 -16.3313 1.75731
-13.4206 -15.9112 1.48796
-12.7637 -16.3193 -2.71884
-14.1786 -16.4493 1.61394
-15.813 -16.3462 0.186853
-15.8017 -16.3499 0.193237
-15.1056 -16.3833 -0.505841
-15.0395 -16.7072 1.34382
-14.918 -16.6938 1.47656
-14.7962 -16.6368 1.48211
-14.6909 -16.5398 1.60281
-14.6794 -16.5332 1.60182
-14.5069 -16.3936 1.02579
-14.0925 -16.3424 1.34588
-14.0101 -16.0246 0.80447
-13.9808 -16.1185 0.908325
-13.9487 -16.202 1.0378
-13.8042 -16.2064 0.10508
-13.3766 -16.2571 -0.319657
-12.1743 -15.609 -0.0747713
-12.7513 -13.9976 0.963453
-16.3801 -17.1922 0.971388
-15.5669 -16.3959 0.37904
-15.357 -16.4548 -0.191112
-15.0087 -16.6846 1.23832
-15.0548 -16.4154 0.0703337
-14.9556 -16.18 -0.891164
-14.8074 -16.1436 -0.869802
-14.4077 -16.3258 0.546229
-14.2102 -16.3614 1.35767
-14.1405 -16.336 1.17865
-14.0033 -16.1844 0.852399
-14.0288 -16.1086 0.822142
-13.9756 -16.2473 1.04525
-13.991 -16.0654 0.845712
-13.8605 -16.1878 0.0209703
-13.8185 -16.1511 1.32593
-13.3907 -16.2634 -0.67853
-13.3732 -16.2913 -0.2537
-13.3733 -16.2629 -0.285075
-13.3327 -16.203 -0.261484
-12.5121 -16.3031 -2.52534
-12.7119 -13.9894 0.993227
-16.6364 -17.2581 1.05917
-16.3792 -17.1812 0.689626
-16.3367 -17.1786 0.695311
-15.2836 -16.221 -1.15094
-15.1085 -16.7012 1.32143
-14.9356 -16.407 0.372848
-14.9646 -16.1589 -0.734444
-14.9496 -16.1864 -0.661223
-14.5521 -16.0959 -1.45706
-14.3677 -16.3046 0.576322
-14.1191 -16.3316 1.27106
-14.0577 -16.3308 0.653896
-14.0344 -16.0974 0.803266
-13.8337 -16.1927 0.0317479
-13.825 -16.2108 1.34742
-13.8142 -16.2114 1.37004
-13.6975 -16.189 0.113809
-13.8077 -16.184 1.40171
-13.6909 -16.1757 0.0847745
-13.7824 -16.1247 1.39391
-13.3672 -16.2381 -0.292272
-12.9438 -15.7959 0.691513
-12.8533 -15.7486 0.490743
-10.6201 -15.9717 -2.18545
-16.3388 -17.1655 0.368619
-15.6262 -16.3182 -0.0198024
-15.0044 -16.2104 -0.713697
-14.9599 -16.1308 -0.945842
-14.3403 -16.6183 -2.87506
-14.5583 -16.3778 0.904133
-14.4583 -16.1107 -0.164474
-14.2173 -16.2321 -0.0933628
-14.1467 -16.3261 1.23069
-14.0229 -16.3043 1.14089
-13.9797 -16.3105 1.3248
-13.9993 -16.1053 0.869424
-13.6013 -16.3123 -0.550513
-12.6001 -16.0113 -0.870978
-14.7217 -16.4147 0.858979
-14.661 -16.3006 0.0703884
-14.6047 -16.3878 1.00085
-14.562 -16.1337 -1.42189
-14.4558 -16.1481 -1.40594
-14.346 -16.369 1.04697
-14.2714 -16.3451 1.12325
-14.2363 -16.35 1.38985
-14.0317 -16.0776 0.787972
-13.7795 -16.1533 1.53358
-13.5945 -16.1705 0.244217
-13.7516 -16.0671 1.47642
-11.7706 -16.1542 -2.08372
-12.3536 -15.6387 0.0183283
-16.6384 -17.2476 1.13249
-14.8067 -16.6661 1.60073
-14.5961 -16.1741 -1.55388
-14.6166 -16.3282 0.0857824
-14.1039 -16.5542 -2.88574
-13.8931 -15.9909 0.858185
-15.855 -16.3433 0.125068
-15.1671 -16.6334 0.803684
-14.0094 -16.2176 1.71428
-13.1742 -15.9232 -1.30845
-12.3342 -15.6136 -0.205534
-14.1837 -16.3501 1.408
-13.2118 -15.9297 -1.19036
-13.4414 -16.2925 -0.409672
-13.0779 -16.2421 -0.386271
-15.8884 -16.621 0.210117
-15.2392 -16.7115 1.00281
-15.271 -16.3415 0.374953
-14.8847 -16.3807 -0.29123
-13.9971 -16.3169 1.3978
-14.5063 -16.1212 -1.17473
-16.621 -17.2395 0.756406
-16.3478 -17.1834 0.711269
-16.5439 -17.1846 0.213432
-16.5385 -17.1872 0.191083
-16.5277 -17.181 0.183839
-15.4037 -16.7165 1.43912
-15.5656 -16.5899 1.0171
-15.6664 -16.72 0.64929
-14.9191 -16.693 1.47366
-14.823 -16.6544 1.54817
-14.7078 -16.5457 1.6272
-14.5165 -16.3936 1.00762
-14.0924 -16.3425 1.34474
-14.1035 -16.3424 1.32801
-14.385 -16.3117 0.573413
-14.0151 -16.3009 1.09286
-14.6422 -16.3201 0.161581
-13.665 -15.9858 1.83531
-14.0454 -16.3062 0.624941
-13.9717 -16.0928 0.935282
-13.4948 -16.314 -0.42015
-13.3514 -16.243 -0.268243
-13.7704 -16.4586 -3.48415
-16.2097 -17.1724 0.8913
-15.5905 -17.0866 1.45335
-16.0508 -16.6132 0.338194
-15.8769 -16.3447 0.144524
-14.3056 -16.6049 1.69861
-15.8484 -16.3693 -0.414929
-14.6497 -16.3331 0.187309
-13.7977 -16.1406 1.37603
-14.0488 -16.2208 0.822803
-14.9494 -16.1847 -0.669091
-14.0107 -16.0561 0.826291
-14.8068 -16.1419 -0.868521
-13.434 -16.1421 0.255127
-13.2701 -16.2755 -0.180507
-13.3638 -16.2354 -0.287826
-13.3713 -16.2573 -0.668679
-13.6349 -16.4594 -3.12926
-12.5364 -15.9366 -0.701567
-12.7946 -16.3684 -2.24147
-12.7956 -14.0388 1.61075
-12.9391 -16.3082 -3.47899
-11.8025 -16.2112 -1.86382
-11.5518 -15.2907 -1.96236
-16.7054 -17.2725 0.995272
-15.8278 -16.3498 0.192257
-15.1721 -16.3707 0.83397
-15.6944 -16.3214 -0.0429196
-14.4334 -16.5909 1.3865
-15.02 -16.4178 0.181392
-13.8109 -16.2046 1.36476
-13.8041 -16.1535 1.34447
-13.8112 -16.169 1.31556
-13.9931 -16.1089 0.86539
-14.0226 -16.0582 0.804086
-13.6762 -16.1961 1.00861
-13.8306 -16.0929 0.871756
-14.4412 -16.1407 -0.130588
-15.2971 -16.1402 -1.54546
-13.6299 -16.1818 0.155014
-13.2015 -16.1146 0.335262
-14.4076 -16.6562 -2.40196
-14.3515 -16.6235 -2.45
-12.9468 -16.2304 -0.0436571
-13.3358 -16.257 -0.697201
-13.5949 -16.4806 -2.68005
-13.1155 -15.8308 -1.24739
-13.6664 -16.4508 -3.41519
-12.0965 -16.2454 -2.14173
-11.9061 -16.2148 -1.85986
-12.4932 -16.2319 -3.05912
-11.7331 -16.1825 -1.82213
-12.659 -13.9856 1.17747
-11.2362 -16.0732 -1.92309
-16.3445 -17.1827 0.732853
-15.1792 -16.6343 1.23805
-14.9597 -16.6848 1.40259
-15.9659 -16.3967 0.0729192
-14.7805 -16.6115 1.50899
-15.6644 -16.3725 0.26988
-15.6673 -16.3643 0.18327
-14.9128 -16.3949 0.825168
-14.8296 -16.4125 0.82708
-14.0479 -16.2633 1.62525
-14.4615 -16.3749 0.882881
-14.9965 -16.3684 -0.408759
-14.2368 -16.2025 -0.137704
-13.9387 -16.2195 0.0558522
-14.067 -16.1903 -0.169052
-13.7073 -16.329 -0.590969
-13.4891 -16.297 -0.477595
-13.4014 -16.2767 -0.686863
-14.0088 -16.5199 -3.27022
-14.2123 -16.5174 -3.8262
-12.2683 -15.5957 -0.34252
-11.5586 -16.1359 -2.2818
-16.3294 -17.1981 1.08801
-16.3015 -17.1921 1.11005
-16.3454 -17.1779 0.407766
-15.6624 -16.3163 -0.0229456
-14.9253 -16.4154 0.827234
-14.9598 -16.412 0.785069
-14.5648 -16.4042 1.02262
-14.4031 -16.3762 1.22388
-14.3452 -16.3678 1.04135
-14.0492 -16.3207 1.2087
-13.8978 -16.1995 -0.0127193
-14.6078 -16.1709 -1.53734
-14.4578 -16.1472 -1.39785
-13.2555 -16.1211 0.373166
-13.7541 -16.3005 -0.665094
-13.9581 -16.5291 -3.15637
-12.3519 -15.9517 -0.431222
-12.3999 -15.8221 -0.495338
-12.8597 -14.0473 1.40677
-11.6581 -16.1738 -1.75536
-11.5599 -16.1238 -2.35463
-15.8736 -16.6201 0.761027
-15.1526 -16.6857 0.811288
-14.4544 -16.3877 1.21768
-14.0794 -16.3319 1.40458
-14.2448 -16.3589 1.14494
-13.5451 -16.3025 -0.596873
-14.1701 -16.5167 -3.4691
-12.2904 -15.6098 -0.240508
-12.0353 -16.1889 -2.70004
-14.8513 -16.6414 1.08006
-15.0696 -16.3804 -0.269937
-14.3793 -16.2055 -1.28089
-12.9307 -16.3459 -3.09884
-11.996 -15.5341 -0.512182
-13.9379 -16.3072 1.2928
-14.2643 -16.2796 -1.13205
-13.1238 -15.9582 -1.01782
-12.3829 -16.0349 -0.436033
-15.3987 -16.3321 0.403264
-13.9287 -16.2806 1.1822
-12.9035 -16.1637 -0.572102
-12.476 -16.0437 -0.629465
-15.7653 -16.6738 0.449904
-15.025 -16.383 -0.373974
-15.9447 -16.96 0.851683
-14.4496 -16.6054 1.60911
-14.7252 -16.4911 1.12974
-16.5318 -17.2455 1.23305
-16.5934 -17.2476 1.16878
-16.4521 -17.2293 1.21282
-14.9195 -16.6924 1.47268
-14.6888 -16.5342 1.56453
-16.3489 -17.1835 0.713861
-14.0931 -16.3419 1.34398
-16.3329 -17.1563 0.333844
-14.4664 -16.3894 1.17729
-13.6193 -15.9614 1.56434
-14.058 -16.3111 0.616571
-13.3543 -16.2396 -0.268289
-13.4712 -16.2889 -0.737181
-14.1238 -16.3569 -0.919894
-14.1833 -16.3632 -0.962973
-12.4572 -13.9586 1.16542
-14.311 -16.5298 -3.95658
-16.7081 -17.2825 1.1924
-16.4228 -17.2196 1.24664
-15.0327 -16.7027 1.52633
-16.5696 -17.2315 0.742903
-16.3354 -17.1764 0.712066
-16.3563 -17.1812 0.687851
-16.3565 -17.1719 0.672153
-14.0431 -16.2693 1.66534
-16.6369 -17.2128 0.510998
-13.7963 -16.1667 1.38199
-16.079 -16.6052 0.326682
-14.0315 -16.1095 0.813632
-14.4129 -16.319 0.551505
-15.7615 -16.321 0.0537316
-13.028 -15.8018 0.70639
-13.8194 -16.2056 0.0884453
-12.7102 -15.7308 0.535054
-13.5047 -16.3115 -0.43847
-12.7669 -16.1944 -0.338752
-14.5748 -16.6795 -2.52857
-14.4587 -16.6097 -3.10533
-13.4367 -16.4255 -3.03048
-12.4939 -16.2455 -3.06497
-14.2812 -16.5258 -3.95111
-15.6648 -16.599 1.0239
-14.1094 -16.343 1.32803
-13.8135 -16.1683 1.34977
-13.8183 -16.1994 1.32135
-14.5212 -16.3922 1.00921
-15.172 -16.369 0.83356
-14.7735 -16.3803 0.71479
-13.9355 -16.1094 0.969101
-15.0198 -16.3873 0.48368
-14.0018 -16.0248 0.807022
-15.0282 -16.4175 0.0533348
-14.9878 -16.1608 -0.754424
-13.3223 -16.2649 -0.674764
-12.4144 -15.8967 -0.543244
-12.5428 -15.9447 -0.663856
-13.5276 -16.4704 -2.60011
-11.2425 -16.0692 -1.98871
-12.9581 -16.3638 -2.64213
-11.4837 -16.0949 -2.32843
-12.774 -16.283 -3.33716
-14.0323 -16.4966 -3.76141
-12.954 -16.3082 -3.45659
-14.2593 -16.5202 -3.93006
-14.8333 -16.658 1.54229
-14.4895 -16.5966 1.38512
-16.3404 -17.1654 0.363432
-15.6922 -16.3706 0.207751
-15.6711 -16.3589 0.188867
-14.0253 -16.0472 0.746234
-15.7223 -16.3436 -0.485596
-13.3888 -16.2975 -0.638536
-13.376 -16.2812 -0.656074
-12.7399 -13.9918 0.967171
-12.2063 -15.581 -0.351813
-12.838 -16.3881 -2.19341
-12.5919 -16.2888 -2.91736
-15.2197 -16.7176 1.30969
-14.5944 -16.4069 1.04951
-14.3639 -16.3813 1.0681
-14.7232 -16.4353 0.92307
-14.8303 -16.4273 0.885608
-14.9249 -16.4143 0.832125
-14.2748 -16.3427 1.00595
-13.1662 -15.8583 1.10538
-13.0059 -15.8041 0.702227
-13.6531 -16.1748 0.117831
-15.5781 -16.3053 -0.698229
-12.9912 -14.0541 1.3891
-12.3116 -15.6209 0.00437525
-12.281 -15.6155 -0.235162
-13.6203 -16.5024 -2.65678
-13.6086 -16.4874 -2.6932
-14.0987 -16.5344 -3.70923
-14.861 -16.6634 1.26083
-14.6105 -16.6163 1.24842
-14.3979 -16.3668 0.941843
-13.1742 -15.8484 1.06062
-14.469 -16.382 0.435264
-14.0339 -16.2391 0.0105528
-12.5964 -15.705 0.41387
-12.6076 -15.6983 0.201916
-15.2808 -16.2202 -1.08114
-12.3347 -15.9177 -0.367172
-12.9808 -16.3232 -3.18888
-16.784 -17.2834 1.14093
-15.235 -16.7348 1.33713
-15.6343 -16.5776 1.05087
-12.8724 -16.1905 -0.39135
-15.1483 -16.1474 -0.804262
-12.6373 -16.1168 -0.773064
-14.7879 -16.6402 1.22972
-12.6379 -15.9619 -0.964108
-12.9674 -16.3711 -2.47297
-14.494 -16.3483 0.243612
-14.9538 -16.3713 -0.286603
-15.707 -16.3588 0.0621542
-15.3175 -16.5722 0.636125
-15.1096 -16.3456 -0.157066
-13.429 -15.9025 1.21143
-14.1971 -16.3544 1.26294
-14.3158 -16.3643 1.17448
-13.9617 -16.1963 1.0281
-14.0201 -16.0179 0.717328
-14.3596 -16.3352 0.630896
-16.3802 -17.218 1.131
-16.3364 -17.1974 1.06155
-12.4133 -15.9128 -0.565246
-12.4154 -15.8619 -0.546909
-16.4802 -17.2125 0.832457
-13.7341 -15.9727 1.6283
-14.0481 -16.2782 1.61912
-14.2853 -16.5755 1.57855
-14.1906 -16.3447 1.34889
-14.0705 -16.2538 0.796844
-14.0362 -16.1527 0.810588
-14.0566 -16.3153 0.643169
-14.0384 -16.3098 0.61529
-16.6204 -17.257 1.17451
-13.2985 -16.2581 -0.210066
-12.4298 -15.822 -0.504952
-16.6681 -17.2582 0.880417
-16.6594 -17.2153 0.410808
-11.288 -16.1139 -1.88319
-11.7841 -16.1712 -1.89933
-11.3332 -16.1023 -2.22831
-14.0361 -16.2922 1.66033
-14.2624 -16.5777 1.58014
-14.0088 -16.3185 1.3171
-14.1191 -16.3298 1.27723
-14.1776 -16.3417 1.29313
-14.8196 -16.4005 0.807617
-12.927 -16.2366 -0.045123
-16.6241 -17.2511 1.15986
-12.2333 -15.6058 -0.292321
-16.4019 -17.2016 1.00772
-13.8325 -16.1941 0.0319915
-12.4003 -15.8285 -0.507127
-16.3659 -17.1944 0.763352
-16.3565 -17.184 0.718247
-16.3364 -17.1633 0.708504
-16.3527 -17.1609 0.675155
-12.7208 -16.1395 -0.720325
-12.5434 -16.0138 -0.825937
-13.4805 -16.2832 -0.576725
-16.3424 -17.1595 0.36704
-16.4121 -17.1618 0.260223
-15.8232 -16.354 0.188167
-13.7461 -16.5233 -2.16662
-13.6049 -16.4945 -2.64552
-13.8528 -16.5088 -2.84722
-13.5978 -16.4502 -3.17144
-14.3719 -16.5986 -3.08317
-14.2203 -16.5089 -3.87498
-14.2133 -16.5094 -3.93409
-15.0248 -16.7049 1.51441
-15.1166 -16.714 1.33978
-15.2348 -16.6204 1.21293
-14.5328 -16.3826 0.950022
-12.3235 -15.6232 -0.0457678
-15.1666 -16.3684 0.828415
-12.3752 -15.8542 -0.462569
-12.5729 -16.0048 -0.721695
-13.519 -16.3042 -0.423979
-13.404 -16.2902 -0.618825
-11.764 -16.1884 -2.54405
-15.8062 -16.3587 -0.428853
-12.699 -16.3521 -2.34485
-15.6718 -16.3259 -0.606476
-15.5386 -16.2897 -0.784329
-15.3921 -16.2504 -0.974039
-12.8699 -16.317 -3.1283
-14.0151 -16.188 1.76594
-14.339 -16.5968 1.70122
-14.0008 -16.3058 1.1346
-15.016 -16.6976 1.32637
-13.9608 -16.0418 0.886083
-14.0288 -16.1569 0.807719
-15.785 -17.1128 1.22969
-14.5693 -16.395 0.897629
-15.1385 -16.3284 0.789386
-16.325 -17.1925 0.953071
-15.7555 -16.352 -0.493719
-12.9957 -14.0659 1.40037
-12.6119 -15.7104 0.41451
-14.8682 -16.4317 0.899281
-12.2174 -15.608 -0.104893
-16.528 -17.2242 1.23647
-16.6379 -17.2864 1.17968
-11.7216 -16.166 -1.95205
-15.7409 -16.3285 0.033514
-15.4243 -16.2623 -0.892226
-13.8727 -16.1193 0.981284
-14.5194 -16.378 0.962304
-14.0574 -16.2323 0.734916
-12.5675 -15.6891 0.130948
-14.1491 -16.2376 -0.0220787
-15.7169 -16.3063 -0.0745108
-14.0121 -16.3269 1.75318
-14.5191 -16.6371 1.68053
-14.5601 -16.3935 1.11267
-12.7685 -15.9966 -1.02606
-15.9944 -16.3744 -0.0366021
-12.4538 -16.042 -0.575911
-16.1926 -16.6038 0.108521
-15.325 -16.4893 0.70737
-16.1776 -17.1825 1.30225
-13.775 -16.5396 -2.4294
-12.6655 -16.3248 -2.40537
-14.4707 -16.3633 0.828093
-13.8333 -16.1797 -0.0164707
-14.4519 -16.3784 0.878996
-13.9996 -15.9887 0.79593
-14.1952 -16.3534 1.26172
-11.2485 -16.0846 -1.86501
-11.1767 -16.0732 -1.90238
-12.4001 -15.7816 -0.363987
-13.0399 -14.0863 1.74632
-16.6092 -17.2042 0.399422
-15.7657 -16.3476 -0.480727
-16.1415 -17.1773 1.19457
-14.0408 -16.0586 0.739981
-14.0097 -16.0571 0.809083
-13.9387 -16.0927 0.943222
-12.7009 -15.7189 0.465184
-12.9786 -15.8171 0.980799
-15.4949 -16.277 -0.839108
-16.4422 -17.1956 0.734891
-15.6919 -16.3788 0.198662
-15.3808 -16.6997 0.770041
-14.3739 -16.3084 0.591605
-14.5385 -16.3961 0.988832
-14.026 -16.3354 0.524894
-13.9252 -16.2165 1.04507
-13.9687 -16.2737 1.11379
-13.8511 -16.2145 1.13894
-12.9518 -15.782 0.907216
-16.4273 -17.1832 0.605964
-13.0669 -16.359 -2.80788
-15.1405 -16.3371 0.792016
-14.6877 -16.3948 0.709878
-13.9037 -16.1874 1.02241
-13.9002 -16.2142 1.16924
-11.0431 -16.0183 -2.44398
-12.6839 -15.7157 0.483628
-16.6756 -17.2709 1.15862
-15.2471 -16.3758 -0.350631
-15.009 -16.6994 1.4377
-14.8176 -16.6465 1.60863
-13.8898 -16.1363 0.96151
-14.0213 -16.3647 1.66493
-14.0332 -16.5149 1.73752
-10.6499 -15.9724 -2.13058
-13.0014 -15.7952 0.716109
-15.1023 -16.3412 0.673073
-14.6843 -16.3679 0.68792
-11.7847 -16.1873 -1.91553
-13.5872 -15.9536 1.39615
-12.4188 -15.5604 0.401366
-12.3279 -15.8763 -0.78484
-13.4196 -15.9167 1.48785
-13.9763 -16.2193 0.801701
-14.4931 -16.3191 -0.138341
-14.5525 -16.3691 0.642601
-15.5484 -16.6599 0.859634
-14.5539 -16.3855 0.857235
-14.0459 -16.0728 0.762991
-14.0925 -16.3423 1.34596
-13.6154 -16.3241 -0.546921
-14.0002 -16.1834 0.845767
-13.9926 -15.9994 0.702609
-13.9829 -16.0754 0.910785
-13.3743 -16.2629 -0.290817
-12.7187 -16.1898 -0.283084
-11.0786 -16.045 -2.55529
-16.6521 -17.2578 1.07364
-16.3364 -17.1774 0.691737
-14.9369 -16.4057 0.374407
-14.3686 -16.3056 0.577552
-14.394 -16.3604 1.00322
-14.352 -16.3668 1.00698
-14.0672 -16.3324 0.642908
-14.0565 -16.3311 0.652332
-14.1402 -16.3336 1.18097
-13.8583 -16.1921 -0.0175171
-14.1204 -16.3321 1.26864
-14.0085 -16.051 0.810877
-13.9991 -16.2837 1.06264
-13.9444 -16.0815 0.941225
-13.3682 -16.2375 -0.2956
-13.825 -16.2137 1.34948
-13.4161 -16.1289 0.668064
-12.9535 -15.7678 0.599323
-12.0696 -15.5423 -0.532981
-16.662 -17.2665 1.09686
-15.8261 -16.3544 0.197071
-14.5575 -16.3806 0.900523
-14.3843 -16.3098 0.57693
-14.3514 -16.3125 0.59646
-14.0346 -16.2626 1.70268
-13.7818 -16.1542 1.40404
-13.3193 -16.1571 0.531211
-12.5965 -16.0084 -0.875771
-10.6516 -15.9722 -2.18245
-16.6157 -17.2816 1.20652
-14.4186 -16.5912 -3.22726
-14.8621 -16.675 1.24973
-13.9901 -16.0238 0.866958
-13.8291 -16.0899 0.924424
-12.5769 -16.3006 -2.44264
-12.4899 -15.9367 -0.829336
-16.3531 -17.1639 0.448702
-16.2118 -17.1745 0.881354
-14.9915 -16.1864 -0.752988
-14.6474 -16.4004 1.05679
-13.4788 -15.9253 1.51903
-11.7246 -16.1546 -2.06131
-16.1633 -16.566 0.229373
-14.5666 -16.3432 0.327498
-14.5021 -16.363 0.341932
-14.4785 -16.3578 0.466976
-13.915 -16.211 1.13416
-11.9681 -16.2195 -2.20668
-11.7775 -16.1799 -1.88614
-15.8187 -16.3399 -0.393751
-12.7691 -16.2039 -0.381798
-12.743 -15.7232 0.45995
-13.9469 -16.1916 1.04705
-14.4864 -16.3692 1.04396
-13.9507 -16.2664 1.17884
-14.0097 -16.3161 1.42076
-14.4662 -16.3684 1.04928
-14.0315 -16.0557 0.774705
-13.7961 -16.1646 1.37775
-13.5568 -16.4174 -3.22901
-11.1823 -16.0743 -1.98588
-15.5712 -16.2984 -0.766212
-14.059 -16.1033 0.768075
-14.0121 -16.0491 0.827593
-13.8121 -16.2086 1.36547
-13.8152 -16.1965 1.3209
-13.3495 -16.2837 -0.247882
-13.6904 -16.4549 -3.44827
-14.628 -16.409 1.03149
-14.5631 -16.4063 1.01896
-14.4706 -16.3886 1.1608
-14.2671 -16.5915 1.69116
-14.0546 -16.3208 1.20565
-13.9749 -16.0454 0.911295
-13.8917 -16.0944 0.947512
-11.8363 -16.1543 -2.54082
-11.751 -16.1561 -2.03411
-11.3253 -16.0796 -2.24072
-16.3526 -17.176 0.456425
-14.7119 -16.4209 0.855939
-14.5986 -16.395 0.999645
-14.5148 -16.3696 0.855945
-14.2047 -16.3484 1.3189
-13.7752 -16.1439 1.5208
-13.9298 -16.0229 0.852877
-13.9555 -16.2095 -0.198753
-12.4535 -15.6605 0.0572147
-12.3567 -15.7976 -0.34259
-11.877 -16.2108 -1.99618
-12.7496 -13.9856 0.759709
-15.6236 -16.4497 0.272013
-14.2642 -16.3495 1.14367
-12.4643 -15.6475 -0.0491539
-12.0482 -15.5416 -0.503084
-15.7533 -16.3614 0.176199
-13.0572 -15.8327 0.863078
-16.7255 -17.2706 0.885945
-15.6612 -16.6453 1.27402
-14.7062 -16.3052 -0.357489
-13.493 -16.1011 0.629755
-12.4237 -15.9187 -0.481783
-15.9864 -16.5693 0.691892
-14.6428 -16.4781 0.0480536
-13.0756 -16.2087 -0.474177
-15.2683 -16.3314 0.357542
-15.1537 -16.405 0.5261
-15.0064 -16.3874 0.466667
-14.0282 -16.2419 1.69253
-15.0372 -16.1264 -0.872022
-12.3692 -16.2716 -2.3883
-16.3541 -17.1755 0.700562
-16.1563 -16.6118 0.292807
-16.0753 -16.6047 0.332431
-14.8395 -16.428 0.884069
-14.9525 -16.4076 0.237376
-15.0265 -16.4198 0.0477044
-15.65 -16.3039 -0.739494
-13.8225 -16.2161 1.33248
-14.6931 -16.326 -0.255004
-14.7045 -16.3249 -0.421396
-14.2489 -16.2036 -0.541409
-13.3855 -16.287 -0.285247
-14.3513 -16.6211 -2.4402
-14.2754 -16.5908 -2.92804
-14.4118 -16.5875 -3.30928
-11.1556 -16.0716 -1.96011
-15.554 -17.0743 1.4712
-15.7603 -16.3176 -0.0298899
-14.519 -16.3776 0.772034
-14.6497 -16.33 0.191001
-13.9874 -16.0417 0.831738
-15.0042 -16.1799 -0.737246
-14.468 -16.118 -0.160404
-13.9003 -16.2187 0.128697
-13.953 -16.2088 -0.0389308
-13.6261 -16.1837 0.188853
-13.2059 -16.1146 0.332592
-14.3126 -16.6151 -2.87341
-12.4851 -15.6566 -0.0222307
-13.7305 -16.4495 -3.48361
-12.9577 -16.364 -2.63858
-12.067 -15.5531 -0.45267
-13.1124 -16.3429 -3.22708
-11.3434 -16.0763 -2.22314
-14.5622 -16.4068 1.02186
-14.6391 -16.3901 0.685509
-14.378 -16.3649 1.00236
-14.318 -16.3485 0.936027
-14.0482 -16.3203 1.21175
-14.8492 -16.1557 -0.572137
-13.7948 -16.1839 -0.0644838
-14.0158 -16.5196 -3.27468
-13.1625 -16.3699 -3.14347
-15.2171 -16.7097 1.2442
-14.7633 -16.4023 0.821137
-13.7849 -16.1939 0.0739939
-13.6958 -16.189 0.125661
-13.7295 -16.1795 -0.0700202
-13.2882 -16.1355 0.444322
-14.6005 -16.1812 -1.42095
-13.3606 -16.2029 -0.294054
-12.0431 -15.543 -0.503033
-16.6121 -17.2566 1.17201
-14.7298 -16.3978 0.79089
-13.4455 -16.2866 -0.727358
-13.0607 -15.8401 -1.16914
-15.9971 -16.6033 0.301192
-15.1118 -16.1536 -0.887034
-14.5267 -16.3622 0.28433
-13.227 -15.8673 1.07056
-15.1597 -16.6951 1.26191
-14.8523 -16.6723 1.54552
-14.7102 -16.5445 1.62703
-15.8273 -16.3595 0.191469
-14.0431 -16.0687 0.761848
-12.5115 -15.6829 0.263606
-12.3727 -16.2655 -2.38089
-12.5095 -16.2934 -2.519
-15.0243 -16.7099 1.54611
-15.1164 -16.7045 1.32518
-14.8706 -16.6577 1.27115
-14.1451 -16.3335 1.26294
-16.1242 -16.5954 0.292811
-14.5962 -16.3934 0.991199
-14.561 -16.3837 0.938983
-15.0084 -16.3799 0.466183
-13.2868 -16.1839 -0.24524
-14.1205 -16.3563 -0.917015
-14.1768 -16.3623 -0.958676
-13.5864 -16.2572 -0.975623
-11.758 -16.2096 -1.61001
-13.1439 -16.433 -2.2594
-12.5768 -16.2921 -2.87911
-13.7275 -16.4401 -3.50929
-16.5551 -17.2485 1.23511
-16.6395 -17.2462 0.823775
-14.8354 -16.6622 1.54139
-15.091 -16.7123 1.33722
-13.6222 -15.9642 1.60583
-15.1696 -16.3131 0.761276
-15.6965 -16.3696 0.209389
-15.5261 -16.3242 0.138928
-14.8124 -16.3647 -0.199096
-12.6874 -15.7246 0.474966
-15.3334 -16.2329 -1.08442
-12.5505 -16.1398 -0.594396
-12.7168 -16.1581 -0.706591
-14.413 -16.6052 -3.12061
-11.1588 -16.0823 -1.92589
-13.6835 -16.4895 -3.12701
-14.4724 -16.5786 -3.70455
-13.619 -16.4473 -3.37406
-13.0804 -16.364 -3.14296
-14.4861 -16.388 1.14861
-14.8307 -16.4267 0.885756
-14.8826 -16.4205 0.852232
-14.9281 -16.4116 0.831779
-14.6806 -16.3884 0.69131
-15.6603 -16.3435 0.0991456
-12.9662 -15.8072 0.912001
-13.7587 -16.195 0.179117
-13.5926 -16.1774 0.147824
-13.9741 -16.2028 -0.191055
-11.9639 -16.2066 -2.10935
-11.2203 -16.0766 -1.93408
-14.0227 -16.3297 1.42826
-13.9851 -16.3076 1.27536
-13.5735 -15.9515 1.62977
-13.223 -16.1325 0.357879
-12.7273 -15.7426 0.571771
-15.4819 -16.2784 -0.851918
-12.5999 -15.6999 0.425441
-12.2826 -15.6137 -0.236002
-12.6687 -13.991 1.17272
-11.9499 -15.5359 -0.451836
-11.821 -16.213 -1.60004
-11.7561 -16.1709 -2.03758
-15.1791 -16.7052 1.26073
-14.4807 -16.3791 0.972451
-15.0514 -16.3866 -0.160464
-12.9433 -16.2217 -0.0441494
-12.6395 -16.1264 -0.782546
-12.5138 -15.9505 -0.646873
-13.1266 -15.924 -1.09372
-13.6262 -16.4241 -3.14552
-12.49 -16.2735 -2.84834
-15.643 -16.5897 1.04062
-14.6449 -16.4129 1.06268
-12.5286 -15.9435 -0.874304
-13.1189 -16.3912 -2.73856
-12.9452 -16.3331 -3.10492
-14.814 -16.6425 1.21725
-14.3132 -16.3637 1.32225
-15.4463 -16.4176 0.397976
-15.2978 -16.4132 -0.286739
-12.0782 -15.5642 -0.451951
-14.4804 -16.3296 0.525545
-12.3426 -15.6888 -0.29656
-13.2806 -16.0331 -1.03656
-15.8479 -16.6218 0.257457
-14.6992 -16.2541 -0.541047
-15.1225 -16.2462 -0.698385
-12.5654 -15.9679 -0.68825
-13.2354 -16.0322 -1.03907
-15.1836 -16.3647 -0.627394
-14.9267 -16.6641 1.50813
-14.4194 -16.5484 1.62969
-14.2911 -16.575 1.58198
-13.7996 -16.1646 1.38497
-16.5018 -17.2324 1.22596
-16.5831 -17.2524 1.21337
-16.427 -17.2253 1.17846
-16.5983 -17.2499 1.16821
-14.5904 -16.3924 0.942481
-16.6223 -17.2353 0.757334
-14.0328 -16.1085 0.812784
-16.6384 -17.2098 0.514066
-16.686 -17.2155 0.477649
-16.0705 -16.5933 0.310912
-13.9611 -16.2266 0.0776707
-12.713 -13.9897 0.991626
-15.7746 -16.3518 -0.579029
-15.1516 -16.1701 -0.750013
-11.6967 -16.1858 -1.81545
-11.1477 -16.0574 -1.97955
-13.667 -15.9866 1.83481
-13.4253 -15.9077 1.46193
-16.6227 -17.257 1.17453
-14.1074 -16.3259 1.09537
-14.7795 -16.3814 0.714522
-12.8314 -14.0408 1.44341
-12.8651 -15.7627 0.508998
-16.098 -16.5837 0.310518
-13.3925 -16.2824 -0.262507
-15.0663 -16.3768 -0.435028
-13.6201 -16.2583 -0.994439
-11.783 -16.2043 -1.636
-11.8022 -16.1624 -2.02369
-11.9409 -16.1749 -2.61142
-11.9684 -16.1861 -2.63322
-14.2601 -16.5739 1.58157
-13.8309 -15.9951 1.72878
-14.7776 -16.611 1.49429
-14.4933 -16.6005 1.38951
-15.2929 -16.6941 0.884927
-13.8777 -16.0751 0.932131
-14.7906 -16.4204 0.889976
-14.01 -16.089 0.826096
-16.4001 -17.1681 0.521761
-12.551 -13.9749 1.19276
-15.6748 -16.36 0.185229
-14.7592 -16.345 -0.24623
-12.4294 -15.9169 -0.772611
-15.3172 -16.2353 -1.09082
-11.7093 -16.1653 -1.96459
-16.3273 -17.191 0.953038
-13.178 -15.8583 1.133
-16.4391 -17.1897 0.754056
-12.3697 -15.7825 -0.342306
-12.3442 -15.7596 -0.366143
-12.9027 -16.2026 -0.65149
-14.9894 -16.1811 -0.732738
-13.7178 -16.4637 -3.0672
-14.9616 -16.6884 1.40427
-14.0397 -16.3374 1.41902
-14.6207 -16.6222 1.2448
-13.9769 -16.0925 0.888468
-12.7974 -15.7408 0.558377
-14.9085 -16.4313 0.353008
-13.7141 -16.1869 0.208401
-13.763 -16.1994 0.182671
-13.9015 -16.2069 0.00804174
-14.7029 -16.3183 -0.39167
-12.4163 -15.8867 -0.594052
-12.0329 -15.5426 -0.507754
-15.7832 -16.3619 -0.422073
-15.4638 -16.2722 -0.846507
-11.5245 -16.1302 -2.23428
-14.5887 -16.1368 -1.45859
-12.6444 -16.3032 -2.85957
-13.3775 -16.4208 -2.99109
-16.7692 -17.3382 1.18773
-13.8597 -16.2629 1.26584
-16.7915 -17.2901 1.14135
-12.2446 -15.617 -0.0581482
-14.5643 -16.1844 -1.42525
-15.1472 -16.7267 1.28254
-16.6306 -17.2582 1.21822
-16.0809 -16.6429 0.884226
-15.1493 -16.7215 1.34428
-12.975 -16.3701 -2.46871
-14.8025 -16.65 1.21733
-13.7985 -16.0994 -1.28928
-13.6154 -16.3287 -0.547657
-13.4728 -16.2893 -0.734849
-13.2446 -15.8647 1.04208
-14.0469 -16.3268 1.37753
-13.6722 -16.1958 1.01021
-13.9586 -16.2562 1.04638
-13.973 -16.1274 0.928055
-12.7201 -16.192 -0.283711
-12.5427 -16.0142 -0.826578
-11.672 -16.1801 -1.61593
-16.5172 -17.2249 1.03162
-16.9517 -17.3215 1.12595
-14.7249 -16.3371 -0.26115
-15.102 -16.4101 -0.137289
-14.8756 -16.1652 -0.585338
-12.3736 -16.2532 -2.79232
-14.7032 -16.5368 1.56946
-14.8127 -16.6403 1.59522
-12.5427 -15.6888 0.426731
-14.97 -16.6822 1.3699
-15.0149 -16.6995 1.32691
-13.2085 -16.1157 0.380061
-14.4863 -16.3739 0.880132
-13.5068 -16.1483 0.29282
-14.5361 -16.3487 0.46796
-15.1649 -16.3698 0.827882
-14.4665 -16.188 -0.0972564
-11.4457 -16.0907 -2.33452
-16.0396 -16.5935 0.311014
-15.8588 -16.359 0.117304
-15.8062 -16.362 -0.428518
-13.9209 -16.0961 0.948913
-12.2599 -15.6136 -0.280443
-14.7396 -16.3896 0.746731
-15.2362 -16.6775 0.837952
-15.1415 -16.3302 0.790659
-11.2148 -16.0807 -1.8767
-14.425 -16.115 -0.161191
-12.5657 -16.3024 -2.47478
-13.7919 -16.1468 1.55119
-13.9603 -16.1911 1.00959
-13.9802 -16.0956 0.908031
-13.9269 -15.9954 0.855266
-14.0021 -16.0696 0.8687
-15.6907 -16.3578 0.164258
-15.9788 -16.3692 0.0325704
-13.7647 -15.9829 1.69816
-14.3532 -16.3833 1.27433
-12.4972 -15.673 0.144505
-15.1547 -16.7037 1.2956
-12.4362 -15.6413 -0.102865
-15.2069 -16.6338 1.25665
-14.323 -16.2484 0.573245
-14.0553 -16.2365 0.0470132
-13.2126 -15.9949 -1.33583
-13.7126 -16.4567 -3.40037
-13.1564 -15.8061 0.978644
-14.4951 -16.3948 1.12563
-15.9747 -16.3785 -0.0635813
-14.5255 -16.2314 -1.20723
-12.5589 -15.6452 0.468883
-16.6272 -17.2528 0.878788
-13.0749 -15.8819 -1.27777
-14.9835 -16.3623 -0.375749
-13.2294 -15.865 1.05359
-13.7792 -16.0837 1.46106
-12.3515 -15.9304 -0.392679
-13.9679 -16.2477 1.05434
-13.9533 -16.1738 1.01927
-13.9458 -16.1223 0.970812
-13.9763 -16.099 0.938052
-13.9783 -16.0891 0.910487
-13.9977 -15.9965 0.794072
-14.0448 -16.0637 0.720083
-14.0611 -16.0889 0.727495
-14.0598 -16.3164 0.621574
-14.0483 -16.1439 0.59472
-13.4933 -16.3165 -0.418696
-13.5023 -16.3158 -0.437288
-13.6148 -16.329 -0.5446
-14.6779 -16.3898 0.272041
-15.9612 -17.142 1.03937
-15.5699 -16.4016 0.376068
-15.8842 -16.6109 0.744901
-15.356 -16.4527 -0.184844
-16.4794 -17.2125 0.833152
-16.4221 -17.1912 0.562698
-16.3377 -17.1762 0.358481
-16.6289 -17.2415 0.828708
-16.7201 -17.2534 0.940497
-16.5672 -17.1924 0.327913
-14.1867 -16.4823 -3.96529
-15.3656 -16.007 -1.55634
-12.975 -15.8277 0.979787
-13.2369 -15.8662 1.03955
-14.3216 -16.6032 1.69601
-13.9404 -16.0947 0.945415
-13.8899 -15.9996 0.844597
-14.0107 -16.0595 0.811046
-14.0436 -16.3121 0.621403
-13.5928 -16.316 -0.55989
-13.402 -16.1472 -0.972965
-15.4572 -16.7146 1.36907
-14.6971 -16.4029 0.281303
-15.3935 -16.7061 0.759617
-15.7891 -17.1084 1.25475
-14.548 -16.0774 -1.49047
-16.4076 -17.1997 1.01221
-14.3431 -16.6296 -2.48404
-14.308 -16.609 -2.58167
-16.4116 -17.2061 0.773841
-16.2428 -17.1487 0.302015
-16.4968 -17.2011 0.604834
-14.119 -16.4912 -4.10438
-12.9647 -15.7707 0.919283
-12.4107 -15.8517 -0.458323
-14.0166 -16.306 1.14215
-12.4696 -15.9363 -0.836033
-14.0271 -16.0729 0.803716
-14.0285 -16.3408 0.52255
-14.3603 -16.3068 0.602298
-15.1628 -16.371 0.830616
-15.388 -16.6835 0.783421
-16.3351 -17.1754 0.6903
-13.8001 -16.409 -4.05413
-14.4169 -16.5879 -3.23228
-14.4607 -16.6121 -3.16352
-14.2916 -16.5452 -3.87519
-13.3566 -15.9 1.47556
-12.0346 -15.4525 -0.1254
-13.9036 -16.2152 1.17052
-13.9616 -16.2094 1.13406
-13.9527 -16.1834 1.00712
-13.982 -16.026 0.923943
-13.188 -16.1608 -0.362838
-13.8097 -16.1971 0.0376721
-13.5418 -16.2984 -0.5581
-14.7108 -16.4096 0.286729
-13.3395 -16.4667 -2.41861
-14.9295 -16.1577 -0.785453
-15.6293 -16.2852 -0.0365378
-15.6743 -16.3192 -0.00807316
-13.8253 -16.4694 -3.29406
-13.6503 -16.4533 -3.67883
-16.3725 -17.213 0.698203
-16.0332 -16.5949 0.303643
-16.3961 -17.172 0.720724
-14.0352 -16.5135 1.74011
-14.0382 -16.525 1.71186
-12.3962 -15.972 -0.540442
-13.8895 -16.1418 0.962875
-13.9572 -16.1142 0.931188
-14.8132 -16.6607 1.4802
-14.9369 -16.6985 1.45264
-15.0056 -16.7179 1.43118
-15.1803 -16.3246 0.784869
-15.651 -17.007 1.15014
-14.8126 -16.3825 -0.196671
-14.8481 -16.3548 -0.225757
-14.5914 -16.1527 -1.50426
-16.1047 -16.5644 0.728647
-14.0683 -16.5099 -2.91023
-16.3392 -17.181 0.494041
-16.3849 -17.1992 0.541204
-16.3926 -17.1764 0.512473
-15.7334 -16.126 -0.941419
-14.2265 -16.339 1.35919
-13.9467 -15.9867 0.85602
-13.9181 -16.0049 0.753724
-14.6214 -16.2019 -1.49274
-15.9297 -16.3837 0.0156234
-12.3789 -15.8908 -0.400752
-12.3906 -15.9131 -0.485979
-13.9458 -15.9823 0.709863
-13.4037 -15.9481 1.47391
-12.8754 -16.1762 -0.426983
-14.6624 -16.3987 0.816729
-14.9186 -16.3738 0.65996
-16.1297 -16.6032 0.162226
-13.2823 -16.0436 -1.20618
-12.9841 -15.8625 0.553863
-14.4787 -16.3434 -0.16725
-15.5492 -16.6374 0.901272
-15.9653 -16.3817 -0.23322
-15.463 -16.2269 0.114078
-14.5425 -16.6745 -2.55103
-13.9108 -16.4718 -3.39398
-14.3078 -16.6056 -2.58193
-14.3608 -16.6327 -2.48988
-14.3398 -16.6382 -2.50116
-13.6435 -16.4375 -3.28268
-14.9294 -16.3707 -0.191238
-14.9398 -16.3786 -0.156733
-14.8987 -16.3715 -0.223853
-15.0252 -16.4063 0.0140273
-13.4679 -16.4878 -2.2793
-13.4361 -16.481 -2.3084
-13.029 -16.4238 -2.38558
-14.7191 -16.5379 1.55621
-14.0619 -16.0933 0.770088
-14.0402 -16.0579 0.738108
-13.9395 -16.0183 0.873215
-14.121 -16.326 1.24428
-11.5044 -16.1418 -1.99992
-14.001 -16.3148 1.35686
-12.3442 -15.918 -0.401876
-12.3735 -15.6316 -0.0875576
-13.0719 -14.0952 1.73526
-15.5895 -16.2799 -0.700814
-16.5861 -17.2472 1.03099
-14.3276 -16.6041 -2.74794
-13.4187 -16.3873 -3.98902
-16.3594 -17.2051 1.09302
-13.5723 -16.4852 -2.71601
-14.9089 -16.3721 -0.179814
-13.4585 -16.4736 -2.24897
-12.296 -16.2263 -2.89926
-14.078 -16.2299 -0.0551963
-14.8237 -16.6659 1.46881
-11.9544 -16.2038 -2.24267
-13.9794 -16.1228 0.938443
-13.9275 -16.1737 1.01274
-13.9366 -16.2422 1.07806
-12.5595 -15.9649 -0.727958
-12.9647 -15.785 0.597659
-12.041 -15.5431 -0.534699
-13.0822 -15.814 0.811487
-15.734 -16.3325 0.131866
-16.1978 -17.1824 0.86279
-15.0237 -16.1414 -0.792035
-15.2264 -16.6941 0.859733
-15.1378 -16.3397 0.792691
-13.2401 -16.4642 -2.11944
-13.8955 -16.1365 0.967974
-13.2581 -15.8549 1.00588
-14.3585 -16.6444 -2.45797
-13.1929 -16.4581 -2.20396
-13.367 -16.2677 -0.698515
-14.8204 -16.6421 1.61024
-14.0259 -16.0607 0.791894
-14.2691 -16.5844 1.64674
-14.0164 -16.3501 1.69481
-13.4143 -15.8944 1.09916
-12.4511 -15.6505 -0.0314702
-10.6702 -15.9671 -2.11244
-15.2768 -16.7105 0.752183
-12.822 -16.3793 -2.21939
-13.8874 -16.213 1.07053
-11.4982 -16.1094 -2.02446
-12.4217 -15.561 0.393195
-15.9501 -16.4002 -0.0290464
-11.8713 -16.2018 -2.38696
-12.8098 -13.9982 1.03071
-14.5455 -16.2525 -0.0325728
-15.7109 -16.316 0.12864
-13.9225 -16.1972 1.63395
-14.1625 -16.2562 0.495412
-15.3078 -16.2433 0.111816
-13.2753 -16.1142 0.262095
-16.3355 -17.1782 0.690265
-14.0472 -16.3129 0.623348
-13.9767 -16.0575 0.895402
-13.9512 -16.1106 0.965082
-13.9372 -16.0123 0.86849
-12.9654 -14.0512 1.32554
-16.2961 -16.6612 0.645568
-16.1506 -17.1792 1.23565
-15.6992 -16.3173 -0.0420568
-13.876 -16.1789 0.0455825
-14.0126 -16.0833 0.833192
-14.1044 -16.3293 1.28181
-13.8199 -16.1837 1.33372
-12.7894 -14.0407 1.63432
-13.9876 -16.5313 -2.99841
-12.1981 -15.5728 -0.375763
-16.3537 -17.1671 0.437635
-15.7516 -16.3599 0.177574
-14.9918 -16.4034 0.142163
-14.1706 -16.3445 1.26261
-13.8908 -16.2155 1.16459
-11.893 -16.1723 -2.28586
-13.5167 -15.9313 1.58775
-13.5476 -16.2967 -0.548312
-13.9556 -16.3227 1.27102
-14.6411 -16.5086 0.966551
-16.3371 -17.1788 0.694446
-15.0503 -16.4206 0.0804164
-14.37 -16.3047 0.582738
-13.8121 -16.2924 -0.72989
-13.9504 -16.1085 0.965239
-13.9278 -16.0845 0.960535
-13.7977 -16.1657 1.38008
-12.9313 -16.3423 -3.00488
-14.5753 -16.3625 0.393855
-13.9492 -16.5274 -3.13834
-14.0384 -16.3084 1.12218
-13.9651 -16.0929 0.943185
-13.1353 -15.8281 0.769166
-16.7196 -17.2777 1.1658
-16.3736 -17.1746 0.478084
-15.161 -16.1044 -1.75394
-14.5089 -16.3757 0.850936
-13.9661 -16.5339 -3.14137
-13.8202 -16.2037 -0.0402811
-13.9244 -16.0256 0.849305
-13.0129 -16.2311 -0.522193
-16.3526 -17.1639 0.450681
-14.6408 -16.4085 1.04638
-15.6635 -16.5731 0.995274
-14.5635 -16.3867 0.989648
-11.7951 -16.1705 -1.94838
-15.6625 -16.643 1.2874
-14.0012 -16.3075 1.4229
-13.9918 -16.5193 -3.19355
-13.4296 -16.455 -2.50012
-16.1998 -16.5377 0.711403
-14.1562 -16.3376 1.31212
-13.9831 -16.3094 1.33028
-14.0333 -16.1665 0.827563
-14.0344 -16.0766 0.797668
-13.9634 -16.0911 0.918715
-13.8972 -16.2085 0.0786011
-13.516 -16.2996 -0.488868
-14.0993 -16.3213 1.17336
-13.8799 -16.2275 1.18432
-13.756 -16.0743 1.4836
-13.6284 -16.3232 -0.550926
-13.2547 -16.1232 0.364987
-13.9366 -16.2221 0.141736
-12.3618 -15.7741 -0.4385
-15.0234 -16.7137 1.56417
-13.547 -16.141 0.218773
-15.8043 -16.589 0.295738
-16.5975 -17.2564 1.20695
-16.3543 -17.1745 0.697518
-15.6641 -16.5922 1.02534
-13.9513 -16.0576 0.947205
-14.0253 -16.0479 0.751476
-12.9872 -15.8156 1.0692
-12.755 -15.9481 -1.08216
-12.8621 -16.3883 -2.27154
-14.9802 -16.4061 0.210434
-15.0231 -16.4062 -0.00235716
-13.9662 -16.5086 -3.20347
-15.2724 -16.7185 1.27504
-14.3288 -16.3524 1.01562
-14.0417 -16.3269 1.20976
-15.0073 -16.1447 -0.826456
-13.9951 -16.2147 -0.0720982
-14.3781 -16.6432 -2.45852
-13.151 -15.9156 -1.22772
-13.4991 -16.4464 -3.02372
-13.1814 -16.3706 -3.20471
-14.0575 -16.3026 0.595137
-14.0531 -16.2211 -0.103083
-16.3303 -17.1658 0.498928
-14.149 -16.3382 0.640637
-12.7758 -13.9756 0.711704
-12.8738 -16.2023 -0.374208
-14.8628 -16.6818 1.54004
-12.8061 -16.1878 -0.389402
-11.8176 -16.1951 -2.0131
-14.1637 -16.1925 -1.28559
-14.5836 -16.3912 0.951031
-14.5591 -16.3816 0.938902
-14.4529 -16.3585 0.825628
-14.0131 -16.0788 0.831281
-13.4522 -15.9011 1.20399
-15.5066 -16.2636 -0.915637
-13.8827 -16.203 0.0338148
-13.3039 -16.1872 -0.255814
-14.3479 -16.2198 -1.26084
-11.8872 -16.1675 -2.56926
-15.7957 -17.1076 1.23762
-14.9535 -16.6835 1.36576
-15.005 -16.6854 1.24484
-14.9316 -16.4123 0.82382
-14.6057 -16.3951 0.921402
-15.6312 -16.3459 0.0491944
-14.9953 -16.3683 -0.408833
-15.1187 -16.3864 -0.517896
-14.9725 -16.3561 -0.402718
-13.3648 -16.2919 -0.253583
-12.3856 -15.6504 0.0877577
-12.556 -16.1403 -0.5996
-12.3155 -15.6196 -0.0248459
-12.3349 -15.8841 -0.765839
-11.8535 -16.1987 -2.05621
-11.1437 -16.0786 -1.92323
-11.1878 -16.0836 -1.95716
-13.9051 -16.4372 -4.33284
-16.9112 -17.3149 1.1353
-14.4478 -16.5978 1.38997
-14.2326 -16.3458 1.20412
-13.3105 -16.1327 0.249662
-13.2149 -16.1152 0.326691
-12.6986 -16.1618 -0.707475
-11.8956 -15.5222 -0.559251
-14.1667 -16.5221 -3.45102
-14.3844 -16.3738 1.23543
-14.9792 -16.4093 0.217269
-13.9943 -16.2232 0.00985867
-14.0854 -16.2154 -0.0982813
-13.0067 -16.2509 -0.0744165
-12.7538 -16.187 -0.308827
-12.2129 -15.5934 -0.0801643
-13.0058 -16.379 -2.63897
-11.4504 -15.3057 -1.88995
-16.3007 -17.1681 0.732402
-15.1887 -16.724 1.3323
-15.1973 -16.7135 1.24931
-14.2449 -16.3618 1.31558
-14.5579 -16.3943 1.03553
-14.9556 -16.4247 0.300518
-14.897 -16.1651 -0.629107
-14.3284 -16.1942 -0.489752
-12.5255 -16.2775 -2.5541
-15.1587 -16.6473 1.23838
-14.4658 -16.376 0.995587
-15.2103 -16.405 -0.219405
-13.9145 -16.2174 0.177721
-12.6309 -16.1169 -0.767638
-15.2164 -16.4699 0.631676
-13.9244 -16.2433 1.13174
-15.1884 -16.4212 0.618343
-14.2812 -16.2704 0.582711
-14.8718 -16.3055 -0.689836
-13.2893 -16.2386 -0.200342
-12.4002 -16.0015 -0.555284
-14.8925 -16.3487 -0.450229
-14.4651 -16.2214 -1.29774
-16.7041 -17.2847 1.19073
-16.7286 -17.2645 0.95987
-16.4113 -17.1897 0.770349
-13.6687 -15.9847 1.8347
-14.9475 -16.4076 0.244675
-16.064 -16.4238 -0.10639
-14.938 -16.451 -0.131405
-14.8729 -16.1168 -0.615707
-14.0502 -16.1613 -1.05118
-14.0237 -16.4924 -3.6907
-14.9101 -16.6816 1.43113
-15.8067 -16.6591 0.61881
-14.6267 -16.4096 1.02338
-13.6827 -16.1981 1.00072
-14.0057 -16.0567 0.825815
-15.0265 -16.3715 -0.444661
-12.8119 -16.3772 -2.24101
-11.7327 -16.1359 -2.58478
-14.0791 -16.5482 -3.74664
-16.5966 -17.2289 0.744678
-14.564 -16.3961 1.03721
-14.0829 -16.3224 1.17223
-14.2995 -16.3594 1.07326
-14.9277 -16.412 0.832896
-14.4981 -16.3749 0.84996
-15.7759 -16.3536 0.172295
-13.9422 -16.215 0.0534804
-12.7814 -15.7546 0.592006
-13.7955 -16.1855 -0.0429193
-13.797 -16.1842 -0.0665945
-14.6951 -16.3229 -0.40865
-15.4428 -16.2614 -0.87138
-13.807 -16.3084 -0.697234
-13.0961 -16.2195 -0.644823
-12.0044 -15.5517 -0.432369
-12.6433 -16.3314 -2.43838
-13.0494 -16.3505 -3.15961
-14.4876 -16.3724 0.977467
-14.8319 -16.4094 0.839416
-14.6649 -16.3953 0.726042
-16.2387 -16.631 0.158357
-13.9899 -15.9937 0.82969
-13.2085 -16.1148 0.36344
-13.7439 -16.1892 0.110736
-12.9541 -14.0564 1.3983
-14.5813 -16.1833 -1.43725
-14.4271 -16.5897 1.39434
-14.4395 -16.3579 0.814746
-13.9486 -16.2257 0.13887
-14.4796 -16.236 -0.186915
-14.2786 -16.5304 -3.90588
-16.1474 -16.6568 0.808935
-14.2388 -16.3615 1.37936
-13.9712 -16.1874 -1.07821
-14.4795 -16.3187 0.542353
-14.0176 -16.2448 0.870717
-15.3952 -16.4203 0.409896
-12.21 -15.8358 -0.352168
-13.6738 -16.1943 1.00703
-14.0224 -16.0549 0.779695
-13.4268 -15.9092 1.46259
-14.4552 -16.3625 0.847648
-11.3438 -16.0571 -2.2298
-12.815 -16.371 -2.22527
-14.8537 -16.6787 1.30473
-16.6458 -17.2688 1.18037
-14.7536 -16.4179 0.915215
-14.0009 -16.0146 0.771521
-13.6607 -16.1885 0.144989
-12.8102 -16.1862 -0.358546
-13.3456 -16.2161 -0.304268
-13.5844 -15.9483 1.59264
-15.0208 -16.6967 1.35389
-14.0949 -16.32 1.17694
-12.9739 -15.8118 0.920082
-12.8545 -15.7387 0.456848
-12.3344 -15.6457 0.0601768
-13.8624 -16.1947 -0.0235999
-13.2496 -16.2651 -0.6567
-15.2774 -16.202 -1.0734
-14.2938 -16.3611 1.23696
-14.664 -16.4096 1.02791
-13.1809 -15.8512 1.0723
-14.4483 -16.3708 0.967188
-15.4771 -16.2778 -0.849622
-12.0387 -16.2079 -2.66215
-13.2601 -15.8691 1.0832
-14.1573 -16.2483 -0.0354405
-15.2254 -16.4219 -0.0735571
-15.1519 -16.7283 1.28482
-13.3099 -15.87 1.18198
-12.6227 -16.122 -0.778324
-12.9914 -16.2371 -0.309174
-13.7325 -16.1364 -1.12055
-12.9899 -15.7738 0.618151
-15.6738 -16.3577 0.18486
-13.9715 -16.2924 1.10977
-12.9408 -15.7788 0.611539
-13.9992 -16.0523 0.807883
-14.0204 -16.0344 0.720328
-15.1649 -16.3683 0.828076
-13.3561 -16.2175 -0.300404
-15.7044 -16.3751 0.194293
-11.3285 -16.0572 -2.24622
-11.3727 -16.0459 -2.24755
-15.8069 -16.3637 -0.43335
-13.5207 -15.9383 1.60244
-14.8179 -16.641 1.51891
-13.9982 -16.2819 1.06844
-14.3051 -16.3665 1.06655
-16.7487 -17.2511 0.679278
-15.6907 -16.3643 0.155892
-15.6499 -16.3378 -0.594612
-14.363 -16.3859 1.26579
-16.0468 -16.6556 0.863596
-15.7889 -16.3559 -0.40191
-13.0845 -16.1726 -0.27147
-12.9929 -15.993 -0.946876
-13.9917 -16.2063 0.913508
-13.6118 -15.9656 -1.11306
-13.4347 -16.284 -0.681275
-14.8478 -16.6417 1.24876
-13.9652 -16.1225 0.945904
-14.0357 -16.0409 0.753372
-14.034 -16.038 0.725322
-13.9261 -16.0475 0.584117
-16.1449 -17.1766 1.20181
-15.0203 -16.3932 -0.0690422
-16.3587 -17.1812 0.689111
-16.3812 -17.1775 0.70356
-15.6442 -16.3165 -0.621529
-14.6951 -16.6422 -3.35846
-13.2169 -15.8448 1.01247
-14.125 -16.2104 -0.128765
-16.6318 -17.2689 1.05666
-12.0343 -16.1688 -3.22065
-16.565 -17.2238 0.692081
-16.3878 -17.184 0.516701
-13.3122 -16.4461 -2.46098
-15.4476 -16.2657 -0.895736
-14.0076 -16.3198 1.75321
-14.0542 -16.494 1.72519
-15.0527 -16.6903 1.29932
-11.8271 -16.1833 -2.0543
-15.6768 -16.3308 0.0551392
-14.931 -16.1573 -0.786106
-15.3303 -16.237 -1.04577
-14.4131 -16.6443 -2.49841
-14.4348 -16.6106 -3.17669
-14.0077 -16.4594 -4.24732
-13.3021 -15.8824 1.4424
-13.6212 -16.0723 0.633831
-13.0106 -16.3045 -3.49117
-14.4772 -16.5983 -3.66875
-12.8835 -15.7809 0.644902
-13.9413 -16.2177 0.103612
-15.7507 -16.3532 0.187001
-15.8855 -16.3464 0.0618022
-13.5112 -16.4615 -2.83834
-13.202 -16.36 -3.17962
-13.689 -16.0025 1.44275
-15.236 -16.6965 0.766093
-15.9096 -16.5084 0.175485
-14.4278 -16.2249 -1.38433
-14.0832 -16.2929 0.590624
-14.0964 -16.2062 0.267363
-13.9089 -16.254 1.24403
-14.9239 -16.4021 -0.380527
-15.1304 -16.3471 0.196823
-15.9003 -16.4988 0.292218
-15.9222 -16.3172 -0.262707
-14.047 -16.5029 -3.72884
-15.7428 -16.3224 -0.0408129
-14.3214 -16.6216 -2.52813
-16.4013 -17.2186 1.1455
-13.6822 -16.4613 -3.122
-15.389 -16.6956 0.75653
-13.6054 -16.5477 -2.09749
-13.4433 -16.4748 -2.29651
-12.8142 -16.3052 -3.27983
-12.8615 -16.3142 -3.19144
-14.6246 -16.3381 -0.0414125
-12.9897 -16.3999 -2.4283
-12.9846 -16.403 -2.40807
-12.2506 -16.2038 -2.938
-12.5688 -16.3041 -2.42323
-11.6339 -16.1683 -1.80107
-12.3937 -15.8334 -0.370925
-13.7915 -16.112 1.48119
-12.1504 -15.5633 -0.457597
-12.9375 -15.7757 0.6021
-12.6405 -15.7146 0.414159
-12.9461 -15.8038 0.944245
-14.3436 -16.5941 -2.75129
-13.5463 -16.3953 -3.84326
-15.6493 -16.3117 0.00460287
-13.4018 -16.3703 -4.01378
-15.0263 -16.396 -0.092629
-13.9301 -16.2157 0.115385
-14.6958 -16.5295 1.52144
-12.4305 -15.9165 -0.829339
-13.789 -16.1336 1.44626
-12.5388 -15.6661 0.0561391
-13.7407 -15.9836 1.62069
-12.9519 -14.0642 1.58304
-16.6621 -17.2987 1.17131
-15.2414 -16.3955 -0.412294
-13.1083 -16.32 -3.35374
-13.9469 -15.9875 0.85269
-12.7968 -15.7452 0.383932
-11.5002 -16.1126 -2.01228
-14.1009 -16.5038 1.74501
-14.0136 -16.3242 1.72541
-16.4267 -17.2517 1.16891
-13.9762 -16.0939 0.821514
-12.9387 -15.8277 1.03497
-12.4697 -16.0451 -0.252615
-12.391 -15.8882 -0.380459
-13.9136 -16.1581 1.70118
-12.7522 -15.7334 0.4607
-13.977 -16.3708 1.35392
-15.3827 -16.6841 0.775615
-13.8036 -16.1688 1.38181
-13.9702 -16.0895 0.950308
-12.4925 -15.9151 -0.69506
-16.3531 -17.1741 0.429941
-16.3873 -17.16 0.691547
-15.9283 -16.3779 0.0172413
-11.8738 -16.1929 -2.4425
-13.6786 -15.9561 1.53264
-11.3249 -16.1309 -1.80181
-14.0434 -16.2918 1.0931
-13.7081 -16.0469 1.4196
-13.3352 -15.8526 0.991886
-15.0837 -16.3926 0.0904426
